# .PCD v0.7 - Point Cloud Data file format
VERSION 0.7
FIELDS x y z
SIZE 4 4 4
TYPE F F F
COUNT 1 1 1
WIDTH 703
HEIGHT 1
VIEWPOINT 0 0 0 1 0 0 0
POINTS 703
DATA ascii
1.552711145602503e-38 2.149647475823303e-38 1.754811875191439e-38
2.1037615372194476e-38 1.7639692205259551e-38 2.3241255298237754e-38
2.7747957276368155e-38 2.3332792317822844e-38 2.0669899240872537e-38
3.564551287068096e-38 2.0945227764441541e-38 1.7363522902611952e-38
1.3874230871907656e-38 1.9567891503856679e-38 2.1863984898680715e-38
2.112902066972392e-38 1.6996721819187217e-38 2.0486294109584378e-38
2.2139519413123975e-38 1.864942443839962e-38 1.552732585469007e-38
1.956757481040374e-38 1.9384520389412062e-38 1.9017084517782987e-38
1.7364269794693437e-38 2.572795190888079e-38 1.7272210090781154e-38
2.1955652239022987e-38 2.14047233399829e-38 1.5526981135267847e-38
1.874112961380043e-38 1.1944499954089022e-38 1.2036988455331388e-38
1.405829422779365e-38 1.451953722252002e-38 1.7735161268335537e-38
1.0296710287292541e-38 1.4334941373217583e-38 1.212811489446643e-38
2.1585553900311695e-38 1.4238265792163814e-38 2.3329933668955621e-38
1.9749340036808242e-38 1.8647678420513072e-38 -1.6752907863772777e+35
-1.674523461623327e+35 -1.6745232635529208e+35 -1.6745236596937333e+35
-1.6745238577641396e+35 -1.674524848116171e+35 -1.674526828820234e+35
4.4815901491303145e-38 2.2967562089976617e-39 4.169574230466822e-38
2.011393547645013e-38 2.1033111598930137e-38 2.3329989720894194e-38
4.059960180432249e-38 1.8279037432204678e-38 1.818644523487595e-38
9.207553858493005e-40 4.059472528566664e-38 1.634802572758965e-38
-1.674650424753756e+35 -1.674531780580391e+35 -1.6745297998763282e+35
-1.674529007594703e+35 -1.674529007594703e+35 -1.6745292056651093e+35
-1.6745299979467345e+35 -1.6745311863691722e+35 -1.6745307902283596e+35
-1.674530988298766e+35 -1.6745307902283596e+35 -1.6745319786507973e+35
4.0407842517270425e-38 -1.674626656305002e+35 -1.6745315825099848e+35
-1.674530988298766e+35 -1.6745307902283596e+35 -1.6745305921579533e+35
4.187721606099214e-38 -1.6746318061355653e+35 -1.6745315825099848e+35
-1.6745315825099848e+35 4.499962573296077e-38 1.2490504690325472e-38
7.310453016195253e-38 8.416912803425262e+19 3.9674671950347966e-38
1.304152747636267e-38 3.8205208723524533e-38 2.8477874028256452e-39
2.375126139590557e+20 1.7174086968413737e-38 1.7449613075066212e-38
1.7986689057243424e+20 3.758742248125272e+20 3.1131037426393914e+20
4.702339498812332e-38 2.2592521371581651e-38 3.4820667716112535e+20
1.8459961879530584e-38 2.0572178291164381e-38 8.358113354090123e-39
3.875655801210392e-38 1.0745686315262212e-38 1.5796686248099516e-38
1.2868081758940865e-39 3.9675193233376695e-38 9.001064121983958e-39
2.341917255905922e-38 9.973450952839843e+19 4.096064915625271e-38
1.5796770326007375e-38 2.3327317444722727e-38 2.109989377903071e+20
5.143983092437577e-39 1.4235697212078707e-38 6.061620869463448e-38
1.9140080273217657e+20 9.295653492945107e-41 9.184632819512044e-39
8.118676007828178e-38 1.245221459555852e+20 4.2062691925730175e-38
1.7266174698295307e-38 1.423558510820156e-38 3.22845676206379e+20
3.783833477257965e-38 7.807100377142176e-39 1.662334584336787e-38
9.184726706509154e-39 5.522082845380163e-40 1.019497321618563e-38
1.4511241535611217e-38 1.4874188022897915e+20 4.4091491842379645e-39
3.551274783353707e+20 1.8092769833834302e-38 3.9675549163186634e-38
2.9400334794336836e-39 1.562520655242316e-39 2.0388749723482727e-38
4.868634950690072e-39 8.725707572445667e-39 1.4970390990431887e-38
2.295993902633069e-38 1.5796826377945948e-38 2.5726270350723598e-39
7.072640615632538e-39 2.3327495409627696e-38 1.8735720601728136e-38
3.735768260526148e+20 1.5245915695785897e-38 1.193985605097825e-38
3.482116029732178e+20 3.8573299001536447e-38 1.267463390723929e-38
1.423575326401728e-38 2.2598855342349825e+20 1.5625010370638154e-39
1.4970455450161246e-38 1.3960152888546196e-38 1.914000990447348e+20
5.603150764138283e-39 1.2215446617360082e-38 2.1949962967257828e-38
2.4809036427915145e-39 3.7655112195772254e-38 2.4614527793276075e-38
1.772556797904877e-38 2.6864830275943976e+20 3.1237801418667395e-39
7.899272184931605e-39 3.820631294671442e-38 2.513521228374071e+20
9.092919236320449e-39 8.26652028256646e-39 9.093077583046918e-39
1.4786944205870196e-38 3.8757418409361013e-38 1.8552189739258586e-38
1.4970549337158356e-38 3.820646148435164e-38 3.912461185635576e-38
1.0103286257664858e-38 3.1961403919675444e-38 2.4789476569847012e+20
4.1339425736353563e-39 2.4614752001030367e-38 2.736974121565303e-38
4.3177158607392345e-39 1.2307450269333793e-38 1.4236005497740858e-38
2.406379507602099e-38 2.9401363139195306e+20 9.644240498930548e-39
1.46952110045001e-38 2.571696572892048e-38 2.5020319475903234e+20
1.3960499009266885e-38 1.864417517435226e-38 3.269642420057081e-38
3.228576388928892e+20 1.010351046541915e-38 1.451176421993841e-38
2.0481025227358516e-38 4.226132598304822e-39 1.1940388544394693e-38
1.8093254683102958e-38 2.038906781823413e-38 8.817907406204382e-39
3.9125284479618636e-38 1.8919905870580525e-38 1.1021959313996171e-38
4.004382441259584e-38 3.728872309409603e-38 1.1573308602575557e-38
2.5166737479112555e-38 1.377708025067448e-38 1.5246392137263767e-38
1.3685282589575026e-38 2.1215793274530306e-38 2.114102559366779e-39
1.0011955228954023e-38 2.1950625781431454e-38 2.084843167171984e-38
4.5018815114131236e-39 1.6348624082033917e-38 1.8277243770170342e-38
2.277725735073052e-38 6.614397800918287e-39 1.524691482159096e-38
2.0757324850763298e-38 2.4616750252640494e-38 1.1482107894621905e-38
1.6624951731407985e-38 1.873713170928171e-38 2.663787946149625e-38
1.0839539681208831e-38 2.103316765086871e-38 1.524805547854092e-38
2.167625014081819e-38 1.0104763226246256e-38 8.543409852624723e-39
1.9380016616147722e-38 2.3053502323495193e-38 1.1023174239764741e-38
1.6441448894907722e-38 1.7543568735800726e-38 3.0495214126064673e-38
1.304369528508698e-38 1.396211470639625e-38 1.9931730242327831e-38
1.901345935865578e-38 1.1299483672258773e-38 1.6074621186812164e-38
2.8659549571559236e-38 1.6258226318100323e-38 1.938076490952767e-38
2.2043910220201557e-38 1.6074779533538633e-38 1.8278738955631777e-38
1.8921707940405647e-38 2.066667625440459e-38 1.919731812496598e-38
2.0850357055809823e-38 2.0942248603906387e-38 2.0023874024147974e-38
2.0391515886651304e-38 2.1401518570394988e-38 2.158529325879733e-38
1.8738355042841066e-38 1.8738607276564645e-38 1.9013963826102936e-38
2.1952765564186478e-38 2.0575205095847323e-38 1.3320471349969632e-38
2.425314693231135e-38 2.2320490103299203e-38 3.472248598002099e-38
2.0667507224393934e-38 2.3702246059240546e-38 1.5984009024213529e-38
2.1218576253280455e-38 2.0024846525282216e-38 2.0575859502230163e-38
1.7545492718592244e-38 1.9106640101339522e-38 1.249469036883841e-38
1.9014860657120104e-38 2.1127198981720298e-38 1.938235258068775e-38
2.158649837547665e-38 1.837220836579917e-38 1.8556169426897268e-38
1.662748387773302e-38 2.0484770898153657e-38 1.7729481805659628e-38
1.8280718990361868e-38 2.1311308580455614e-38 1.5985130062984989e-38
1.9382950935132018e-38 1.2954634359888352e-38 1.5985242166862134e-38
2.572606295855088e-38 2.4072631664137025e-38 2.223028011335983e-38
2.682771616705526e-38 2.5726194680606524e-38 1.7087305955816566e-38
2.0577110861758805e-38 2.0025967564053675e-38 1.9015917236162205e-38
2.250566609016587e-38 2.0944742915172885e-38 1.846495050206358e-38
2.259773420186894e-38 2.4073175367941183e-38 2.4624468604581995e-38
2.3522891066194684e-38 1.855744040460441e-38 1.8557384352665838e-38
2.1955409814388659e-38 1.9751133698842578e-38 2.0853121817679935e-38
2.1954923563821538e-38 2.0210291561454033e-38 2.287344668121717e-38
1.4516584686655688e-38 2.1955165988455866e-38 2.0761678685091955e-38
1.7914900217160624e-38 2.0945592102042266e-38 1.6720850993112519e-38
1.1669834244693643e-38 1.8740943241104674e-38 1.855742078642591e-38
1.653689974110367e-38 1.3414689053516975e-38 1.8648976022891037e-38
2.085330819037569e-38 1.874105534498182e-38 1.7547342432565153e-38
1.9383931844057045e-38 1.4975976566110686e-38 1.5526784953482841e-38
1.901665431915444e-38 1.6169567565560957e-38 1.525125043903958e-38
1.3322256604213182e-38 1.3689542536906574e-38 1.1669918322601502e-38
1.323359645037535e-38 1.250500392553584e-38 5.615463973744305e-39
1.7366221803454242e-38 1.203657787488134e-38 1.9105967478076646e-38
1.276861759394309e-38 1.7085138147092255e-38 1.9290068669021176e-38
1.8923128857048472e-38 -1.675257708619428e+35 -1.6745236596937333e+35
-1.674523461623327e+35 -1.674524055834546e+35 -1.6745244519753585e+35
-1.6745250461865773e+35 3.3428297165115306e-38 2.7735962161513535e-38
1.5705289358360858e-38 1.8920064217306994e-38 3.214817738679144e-38
3.1415586957433213e-38 3.7845489802538495e-38 3.086760078516821e-38
2.2229411308311947e-38 3.1600154780766364e-38 2.2870531980411373e-38
1.1940836959903277e-38 4.536998611448489e-38 -1.6746741932025104e+35
-1.6745315825099848e+35 -1.6745299979467345e+35 -1.6745288095242968e+35
-1.674529601805922e+35 -1.674529007594703e+35 -1.6745307902283596e+35
-1.6745311863691722e+35 -1.674530394087547e+35 -1.674530394087547e+35
-1.6745307902283596e+35 -1.6745307902283596e+35 -1.674530988298766e+35
-1.674530988298766e+35 -1.6745311863691722e+35 -1.6745315825099848e+35
-1.6745313844395785e+35 -1.674531780580391e+35 -1.6745315825099848e+35
-1.6745313844395785e+35 -1.6745319786507973e+35 -1.6745313844395785e+35
4.224455244043025e-38 3.930716180990028e-38 1.552102001160061e-38
1.3868018915815304e-38 4.169503324764527e-38 2.1674054306124593e-38
2.0572084404167272e-38 4.0960385712141415e-38 1.2865741590505443e-39
3.9491057009970557e-38 2.149039312289786e-38 3.7029506980529525e-37
4.096049781601856e-38 3.012396532131417e-38 2.9756662573039207e-38
2.2317108770104787e-38 4.3348484160237626e-38 5.4194153120929413e-39
7.935049857063054e-38 3.857313084572073e-38 4.13278958525891e-38
2.145426512615033e-37 2.121502676427032e-38 1.6072304840450635e-38
7.807230697899358e-39 2.824807747633734e+20 5.143232276720392e-38
3.949131765148492e-38 4.022600162074885e-38 1.1388666510423797e-38
2.2868111937963484e-38 3.297620441497411e+20 1.5796806759767448e-38
3.471613249278374e-38 3.61855004313116e-38 3.581821449861821e-38
4.040978471694198e-38 1.3317164285593825e-38 3.5083233454079844e-38
2.295992921724144e-38 3.4907942226580524e-39 2.369592900576337e-38
3.232854131473162e-38 1.378709533079901e-39 4.004249878424859e-38
2.332746738365841e-38 4.1328439556393257e-38 1.7725539953079483e-38
9.919550805619516e-39 7.807398853715077e-39 3.930801940456045e-38
1.7266222342443094e-38 1.4051970167824151e-38 1.7909126867487606e-38
2.2684562858613898e-38 3.9502617722301236e-39 3.9675624833303707e-38
9.4602696287432e-39 3.875711853148965e-38 3.747142158527777e-38
7.807306368016432e-39 3.104286398669824e-38 2.158255512159804e-38
2.479801101159784e-38 1.0103137720027639e-38 2.663490870875188e-38
6.337928620399322e-39 3.710396749676866e-38 3.7838595414094017e-38
6.888931788258019e-39 2.2041760628357283e-38 2.0480454898883536e-38
4.004275942576295e-38 3.728780664490036e-38 5.951459191989016e-38
3.2976767364927534e+20 4.096126572757701e-38 1.0562399278725455e-38
1.8551975340593544e-38 3.3992109602236396e-39 7.256255556009948e-39
2.810425702910124e-38 1.6347979484740328e-38 3.600216575062706e-38
1.0654243182674232e-38 2.3052035164003045e-38 2.1766310191821882e-38
2.5716685469227616e-38 1.2399155444734602e-38 2.1674596608630287e-38
3.030851632906575e-38 1.4970493285219783e-38 1.6439767336750532e-38
3.9675585596946706e-38 1.8643941157508717e-38 4.8687106208071455e-39
1.1205387881677826e-38 3.3614798780329224e-38 1.6623588268002197e-38
2.2868383789865564e-38 4.13285124239134e-38 3.379815307919227e-38
3.251241689662339e-38 3.94920098929263e-38 3.9124499752478614e-38
3.783889529196538e-38 4.1695874026723867e-38 4.059401622864369e-38
8.542110848948293e-39 2.8288320384987234e-38 1.8001242623338462e-38
3.930857992394618e-38 6.797264447915747e-39 2.5716870440624907e-38
6.061710552565164e-38 3.766674857822001e-39 9.00130794791675e-39
1.2215690443292875e-38 3.2696480252509385e-38 2.0021697807632878e-38
3.9676146116332436e-38 3.728857455645881e-38 3.288041468893666e-38
4.886328305620023e-38 1.3226029438667997e-38 2.51662330116654e-38
6.33827474112001e-39 3.4822497303461154e+20 8.63433030088551e-39
2.0481015418269266e-38 1.8460680745642782e-38 1.8277085423443873e-38
1.579750740899961e-38 1.836902321438976e-38 1.846093297936636e-38
5.603907465309018e-39 1.49710818305748e-38 2.6268612092774303e-38
2.0481145739026448e-38 2.663599331376327e-38 8.726174204834287e-39
2.8289068678367183e-38 1.974648138794102e-38 1.1113906914031309e-38
1.6807763727765337e-38 3.857483202205642e-38 2.4065159940725245e-38
2.0665321198789588e-38 1.2675857240798644e-38 2.1951822490319987e-38
2.1584368401810876e-38 1.432917643133535e-38 1.423743482217447e-38
2.4067026470279726e-38 1.8737392350796075e-38 9.278411916640054e-39
1.9747835042257557e-38 2.351601349333178e-38 1.7727277563175245e-38
1.2584423917299914e-38 2.1492270862840056e-38 3.3066532348371354e-38
2.075773683251181e-38 1.3962002602519105e-38 2.039048733357849e-38
2.682168217586788e-38 2.332905505481849e-38 1.1206881665840796e-38
1.3962124515485501e-38 2.572028960887786e-38 1.846224179213204e-38
1.4054342566124253e-38 2.2686823153036854e-38 2.7557187306031903e-38
2.26866367803411e-38 1.5707241367121663e-38 2.2962349259689328e-38
2.0115467095671637e-38 3.1414650890059044e-38 1.4146281758368605e-38
4.004759951065873e-38 2.2870765997254916e-38 2.0942080448090668e-38
1.8278981380266105e-38 2.1768860555026953e-38 2.847696318425464e-38
2.0942397141543605e-38 2.204452679152586e-38 1.726895907834392e-38
2.0024042179963693e-38 2.2411756672280679e-38 1.552429905000713e-38
1.928948993275541e-38 2.627328402185436e-38 2.167728710168179e-38
2.2595856461926744e-38 2.323858442336475e-38 2.0667283016639642e-38
2.103460678439157e-38 1.6259235252994637e-38 2.250414287873515e-38
1.9657298549775995e-38 2.3886214126830966e-38 1.653500378428144e-38
3.2151820762798686e-38 1.4514791024621352e-38 2.1494288732628684e-38
1.8463801437322834e-38 2.002502308888872e-38 1.5525205690113547e-38
2.3147439767349672e-38 1.699454560267212e-38 2.048436031770361e-38
3.3254875269767395e-38 3.1602021310320844e-38 1.8372516651461322e-38
2.2780443903438395e-38 2.314777607898111e-38 1.8372236391768457e-38
1.855622547883584e-38 2.2229767238121886e-38 1.9567134802685943e-38
1.947557115843003e-38 2.1037465433258794e-38 2.0853756605884275e-38
2.4074873741679945e-38 2.0761192434524834e-38 1.8005903342030806e-38
1.5985167898043525e-38 2.177067383523979e-38 1.975031113664402e-38
1.910755655053519e-38 2.2688953126702628e-38 2.057683060206594e-38
2.0576960922823122e-38 1.5250521763838132e-38 2.048521931366224e-38
1.910784521801884e-38 1.8740326669780371e-38 2.076084771510261e-38
1.92914699674855e-38 2.13120750907156e-38 2.2230458078264798e-38
2.0761062113767652e-38 1.86486593294381e-38 1.580190748617759e-38
1.8005922960209307e-38 2.0669170565671088e-38 1.846524897863648e-38
1.6996208943949274e-38 1.8465539047418596e-38 1.717968375448025e-38
1.7730696731428198e-38 2.3057155508591688e-38 2.094463081129574e-38
1.9567238498772303e-38 1.9107967130985237e-38 1.8097766864158084e-38
1.85570284228559e-38 1.662842695159951e-38 1.5801805191389694e-38
1.31385856118972e-38 1.5250830049500284e-38 1.3138734149534418e-38
2.066921680852041e-38 1.8832460642511264e-38 1.9934168501655757e-38
7.260935892880793e-39 1.662830643993158e-38 1.203722247217493e-38
1.4977237734728578e-38 1.791540468460778e-38 2.995062750387412e-38
1.9657821234103188e-38 2.195315792775649e-38 1.5983784816459237e-38
2.0300203074820506e-38 1.2586357709180683e-38 2.057610192686449e-38
-1.6752392880716434e+35 -1.674524055834546e+35 -1.6745244519753585e+35
-1.6745244519753585e+35 -1.674524848116171e+35 -1.674524848116171e+35
5.510162840123231e-38 2.82871825306342e-38 3.177827663116362e-38
1.7358534280078956e-38 3.820834763208462e-38 2.1492831382225786e-38
2.314794423479683e-38 2.738207264213909e-38 2.3526270998090636e-38
3.7479980716297867e-38 3.6006296778499887e-38 1.4328205331499574e-38
4.73916001726093e-38 -1.674626656305002e+35 -1.674530988298766e+35
-1.6745299979467345e+35 -1.674529601805922e+35 -1.6745297998763282e+35
-1.6745311863691722e+35 -1.6745311863691722e+35 -1.6745311863691722e+35
-1.6745301960171408e+35 -1.674529007594703e+35 -1.6745299979467345e+35
-1.6745313844395785e+35 -1.674530988298766e+35 -1.6745319786507973e+35
-1.6745315825099848e+35 -1.6745319786507973e+35 -1.6745315825099848e+35
-1.6745315825099848e+35 -1.6745311863691722e+35 -1.6745311863691722e+35
-1.6745311863691722e+35 -1.6745313844395785e+35 4.0040494927444603e-38
1.047003128915102e-38 4.040922419755625e-38 4.2980693760097077e-38
9.26762752365861e-41 4.1327635211074734e-38 2.957274775479043e-38
2.1765889802282584e-38 3.85725507081565e-38 3.4715611209755014e-38
5.032939998229085e-38 1.8184417555998073e-38 4.3348316004421907e-38
3.361414577524485e-38 2.736959267801581e-38 2.1031822404342958e-38
1.5246345894414444e-38 4.243154731270361e-38 2.0297354235042534e-38
1.5797321036303855e-38 1.0103258231695571e-38 4.0410269566210636e-38
1.699078031369848e-38 1.5980673933868436e-38 8.277049639227397e-40
2.5716253869300604e-38 3.9858808173754104e-38 1.4419228074548257e-38
3.949953486567972e-39 4.004236706219294e-38 3.030773160192573e-38
2.9756791492497925e-38 3.783831515440115e-38 3.2328336725155826e-38
1.3409187555746036e-38 3.581825373497521e-38 4.1336805308225276e-39
4.298114217560566e-38 1.55212442193549e-38 2.4246700959375454e-38
4.0960817312068427e-38 7.623615757521949e-39 3.838959157546039e-38
1.910296869936299e-38 7.623475627675516e-39 4.0960985467884146e-38
1.552133810635201e-38 2.038874131569194e-38 3.949167358129486e-38
4.592025079805289e-38 2.1398791643583412e-38 5.32757981593495e-39
8.174460578654177e-39 4.3348820471869064e-38 1.7449901742549862e-38
1.5980683742957686e-38 3.9675549163186634e-38 2.1215297214873935e-38
1.6807156965530284e-38 1.8643810836751535e-38 8.266492256597174e-39
1.882762195891395e-38 4.0226486470017507e-38 2.5716478077054896e-38
6.062356270897525e-39 3.1410374127145925e-38 3.7655112195772254e-38
1.1756213084631553e-38 3.8573299001536447e-38 3.967532495543234e-38
1.3041769900996998e-38 3.1409998579157486e-38 6.337900594430036e-39
2.2225403594703978e-38 1.5796834785736734e-38 2.626767882799706e-38
7.439992409353753e-39 1.2766591316363676e-38 3.1410542282961644e-38
1.1572607953343394e-38 5.603282486193929e-39 3.3430771858203304e-38
2.084796503933122e-38 3.7838914910143883e-38 4.05938116390679e-38
4.096105833540429e-38 3.1961031174283934e-38 2.0664237995076665e-38
3.8757306305483867e-38 3.1594174038920625e-38 1.6348081779528224e-38
3.985927620744119e-38 7.164522354639852e-39 6.833106299516861e-38
2.736953662607724e-38 3.783898777766403e-38 1.2858360951493844e-38
4.592047500580718e-38 1.855215190420005e-38 4.0410289184389136e-38
3.9675605215125206e-38 3.618600489875876e-38 1.8368332374246848e-38
1.680725926031818e-38 3.7655168247710827e-38 4.996373955581608e-38
5.988167606560469e-38 1.9286779821525406e-38 1.5246037608752293e-38
3.9675736937180853e-38 2.773715887040207e-38 2.516602561949268e-38
2.74412910282474e+20 3.2512680340734685e-38 2.3512633561435827e-38
2.2225609585578234e-38 1.2123817112076347e-38 3.949243869025638e-38
1.8093114553256525e-38 8.81776727635795e-39 4.022714227769881e-38
2.8655962247490564e-38 1.9470806743651327e-38 2.718689418683407e-38
7.899570661504506e-39 4.059476452202364e-38 2.7554048397471815e-38
1.1848609100175275e-38 1.0746620981337917e-38 3.049312058615897e-38
2.0940286786056332e-38 1.6624074518569318e-38 1.1940408162573193e-38
2.3052643327536562e-38 2.0481305487051381e-38 2.0848553584686237e-38
1.4970979535786903e-38 2.1583265579919453e-38 1.4971043995516262e-38
1.304247055022916e-38 9.18530544277492e-39 3.0676771960296454e-38
1.9930076710139928e-38 1.598113215846627e-38 4.022766356072754e-38
2.8656559200636366e-38 2.4616060813796046e-38 2.3698266371601864e-38
1.221669937818719e-38 2.6086886102726803e-38 1.377827555826455e-38
1.4513221570341308e-38 1.8737430185854612e-38 2.084981475330413e-38
2.2594492998520956e-38 1.9655925277280957e-38 4.059786419422673e-38
3.9128235614184504e-38 1.7819113059333237e-38 1.9563791304550064e-38
1.1573878931050537e-38 2.1584292731693803e-38 1.9747582808533979e-38
1.8921063343112058e-38 1.8278178436246047e-38 2.571995329724642e-38
2.2502507563427282e-38 2.0665807449356708e-38 1.8002671947772073e-38
1.8829452054708358e-38 2.516922057999134e-38 1.5707260985300163e-38
1.974815313700896e-38 3.8761398096999696e-38 2.1033495554709362e-38
8.360355431633043e-39 1.928883552637257e-38 4.0414529513542183e-38
1.8921455706682069e-38 1.1023668898122648e-38 2.020721851392177e-38
2.92107503225014e-38 2.25950254919374e-38 1.5523870252677046e-38
1.5248335738233786e-38 2.572141064764932e-38 2.1860575539517012e-38
1.9197494688572486e-38 1.4054594799847832e-38 2.1217791526140433e-38
1.6074947689354352e-38 1.8646537763563111e-38 1.5891538739851198e-38
1.7452816443355658e-38 2.2779154708851216e-38 2.0024145876050053e-38
2.2228318295509774e-38 2.0942753071353544e-38 2.2228412182506884e-38
2.1677511309436083e-38 2.0667114860823924e-38 1.8095870907335852e-38
2.1310197350773404e-38 1.451455700777781e-38 2.2687916165839028e-38
2.3055324011498816e-38 2.811046197870127e-38 1.9106491563702303e-38
2.3238966977845512e-38 2.1677959724944667e-38 3.2886672887878335e-38
1.9382184424872032e-38 2.030057722151048e-38 2.2504833718878062e-38
2.0208928098048245e-38 1.864783676723954e-38 2.1953896412047188e-38
3.270367451882523e-38 1.8096525313718692e-38 1.9566201537908703e-38
1.5250577815776705e-38 1.5527073620966492e-38 1.2681369948957298e-38
1.920298777855264e-38 1.6448475005407847e-38 1.553013826070797e-38
2.0120838272685394e-38 1.4241853116232486e-38 2.3332119694559968e-38
2.737785193116454e-38 1.974976042634754e-38 1.8096898059110202e-38
1.993349587839288e-38 2.3056014851641728e-38 2.0484612551427188e-38
1.736242988980978e-38 2.1219473084297623e-38 2.572514931195214e-38
2.1954138836681516e-38 2.2413540525225764e-38 1.9382866857224158e-38
2.1219679075171878e-38 1.96585316924246e-38 2.1036400446425907e-38
2.2138276461386119e-38 2.268936510845114e-38 2.268927122145403e-38
2.112806778676818e-38 1.7730060541925395e-38 1.818923802271535e-38
2.1036092160763755e-38 1.626106675008751e-38 2.1587403614284604e-38
1.7363092703983404e-38 2.2046562878194524e-38 2.186288207678929e-38
1.6811705580345482e-38 1.9750497509339774e-38 1.607706925522934e-38
2.186276156512136e-38 2.0209544669372548e-38 1.8923865940040707e-38
1.9291039768856953e-38 1.7179095209125234e-38 1.855656179046728e-38
2.407233458886259e-38 1.846454832940432e-38 1.580151512260758e-38
1.818923802271535e-38 2.121990328292617e-38 1.791395574199567e-38
1.9015869592014417e-38 1.8280644721543258e-38 1.4239695116597426e-38
1.993319740181998e-38 1.0933280943278304e-38 1.3780163107295995e-38
1.873937378682463e-38 1.7912984642159892e-38 -1.6752220559462966e+35
-1.6745250461865773e+35 -1.6745252442569836e+35 -1.6745260365386088e+35
-1.6745256403977962e+35 -1.6745260365386088e+35 -1.6745260365386088e+35
3.857111017333517e-38 2.997811592178707e+20 3.9123939233092884e-38
1.708288766175855e-38 9.461558823330379e-39 1.570774583456882e-38
1.873936397773538e-38 1.607603229436574e-38 2.121710068599752e-38
1.5522169076341355e-38 1.1113308559587042e-38 -1.6746425019375047e+35
-1.6745307902283596e+35 -1.6745305921579533e+35 -1.6745307902283596e+35
-1.6745299979467345e+35 -1.6745301960171408e+35 -1.674530988298766e+35
-1.674530394087547e+35 -1.6745301960171408e+35 -1.6745305921579533e+35
-1.674530394087547e+35 -1.6745311863691722e+35 8.63264874272832e-39
3.5633798015519207e-38 2.225242825554458e+20 4.0592931623632304e-38
-1.674626656305002e+35 -1.6745329690028288e+35 -1.6745327709324225e+35
-1.6745313844395785e+35 -1.67453237479161e+35 -1.6745321767212036e+35
3.702826038541566e-37 3.9123546869522873e-38 -1.6746318061355653e+35
3.4714055768459613e-38 1.856307944080267e+20 4.132776693313038e-38
1.221501782003e-38 1.7082279498225033e-38 2.2776034017171165e-38
4.132776693313038e-38 1.5245635436093032e-38 1.634770763283825e-38
9.460157524866054e-39 4.02267106777718e-38 5.143497402389842e-38
2.7188088093125675e-38 1.598280390753421e-38 1.9473589722401476e-38
2.42551087501614e-38 1.78208310512505e-38 1.240181791181682e-38
1.772708138139024e-38 2.195122413587572e-38 5.804989871303929e-38
1.6027719976360503e+20 4.059397979488362e-38 1.552150626216773e-38
2.0388749723482727e-38 3.366812268428704e+20 4.0226094106447496e-38
1.643963701599335e-38 2.121512065126743e-38 4.004253521800866e-38
4.0226225828503143e-38 8.450042737245224e-39 2.05723464469801e-38
1.9297967788464575e-39 3.9675212851555196e-38 1.9653935433461615e-38
4.059364348325218e-38 1.902461220089653e+20 6.613351030965436e-39
9.552152769048978e-39 2.0480538976791396e-38 3.802226640641e-38
4.0226225828503143e-38 3.857311122754223e-38 2.571614176542346e-38
5.522265014180526e-40 3.9308002588978877e-38 1.304183576202482e-38
2.3143666070585245e-38 2.8480956884877966e-39 7.348081243078689e-39
2.0939706648492102e-38 1.497043723328121e-38 2.09847898649607e+20
4.409401417961543e-39 2.920619049729849e-38 3.82061055545417e-38
1.654252455313947e-39 4.0593699535190754e-38 9.827695691283024e-39
2.2684665153401794e-38 7.164457894910493e-39 3.912461185635576e-38
1.7174583028070108e-38 2.4063439146211054e-38 1.195187078401137e-39
3.7654980473716607e-38 2.029672785462898e-38 2.7920176857633675e-38
1.2868642278326595e-39 6.154211385234017e-39 1.2858164769708839e-38
1.4235613134170847e-38 2.294474410826211e+20 1.7082765748792153e-38
2.5165933133794033e-38 3.820670531028443e-38 3.399286630340713e-39
3.8389871835153257e-38 1.7725596005018056e-38 3.8390020372790476e-38
1.6531780797813493e-38 3.8757250253545294e-38 9.184800975327763e-39
2.2317304951889793e-38 3.2879702829316783e-38 8.542008554160398e-39
1.4327616786144558e-38 2.516568930786124e-38 5.878863243486512e-39
9.276878896120083e-39 2.516568930786124e-38 3.581857042842815e-38
2.0178001657652157e+20 3.857369136510646e-38 3.802262233621994e-38
2.2317445081736225e-38 4.1328607712208976e-38 9.276758384452151e-39
2.60841956096753e-38 2.3235781826436101e-38 6.429858003554423e-39
3.912464829011583e-38 1.8368416452154708e-38 7.457583749755501e-38
3.8022602718041437e-38 3.8390039990968976e-38 1.4970567554038392e-38
1.781755201284398e-38 1.9195112481183133e-38 3.8390188528606194e-38
1.7266567061865318e-38 1.745024786327055e-38 8.63405844898343e-39
1.1021921478937635e-38 2.0021819720599274e-38 1.9378989464373372e-38
3.930897228751619e-38 4.059457674802942e-38 3.0309001178334406e-38
2.176675019953968e-38 1.1205724193309264e-38 3.820707805567594e-38
2.1950421191855662e-38 2.0756559741801777e-38 1.2307824416023767e-38
3.7472842501920596e-38 4.224828830213614e-38 1.7175049660458729e-38
6.154846173438356e-39 3.857471991817927e-38 2.4064823629093807e-38
2.0022080362113638e-38 2.130774928235623e-38 1.4971119665633336e-38
2.0205733137549585e-38 2.0664864375490218e-38 3.63707969298462e-38
3.839117784532201e-38 3.2697284597827907e-38 1.9379213672127664e-38
1.1481323167481883e-38 3.2881048075842535e-38 1.5705849877746588e-38
1.524684055277235e-38 1.5706139946528703e-38 1.7083868570683577e-38
2.5719616985614983e-38 1.763562843971301e-38 1.8737728662427513e-38
1.9288649153676815e-38 1.4972324782312655e-38 2.0298549542632603e-38
1.5982187336209906e-38 3.049493386637181e-38 1.8737327891066716e-38
2.1767823594163353e-38 1.6900440003001923e-38 2.0573897684380108e-38
1.699239741212631e-38 2.1125134869082347e-38 1.1574223650472761e-38
1.9472095938238505e-38 2.1676063768122435e-38 2.176786142922189e-38
1.754353090074219e-38 1.6992499706914206e-38 1.9104884274363723e-38
3.2699658397426474e-38 3.857729830735363e-38 2.0482687167337206e-38
2.002361338263361e-38 1.313584747469791e-38 3.6557309755447834e-38
2.0666405803800975e-38 1.8829714097521187e-38 3.0312588502403077e-38
1.2952196100560427e-38 2.048276283745428e-38 2.60883042167727e-38
1.9564640491419445e-38 1.4238153688286668e-38 2.6822951752276557e-38
2.268702914391111e-38 1.6166708916693734e-38 2.1676828877083956e-38
2.103404626500584e-38 1.8646453685655252e-38 2.957902557191061e-38
1.8646697511588044e-38 1.9748647795366865e-38 2.140166850933067e-38
2.6089332769845514e-38 1.6442421396041963e-38 1.708521381720933e-38
1.7544531427845717e-38 1.928957401066327e-38 2.1952867858974373e-38
3.068118324786215e-38 2.3330344249405669e-38 1.9106079581953792e-38
1.7453106512137773e-38 2.3330624509098534e-38 2.0024510213650778e-38
2.2136763059044648e-38 1.956550088867654e-38 1.8371675872382727e-38
1.9565631209433723e-38 2.572350418755502e-38 1.9382184424872032e-38
2.0667825319145336e-38 2.2229046970711223e-38 2.167801577688324e-38
2.057600803986738e-38 2.1953652586114395e-38 1.6535321879032841e-38
1.497410863525774e-38 1.231085122070671e-38 2.1586946790985234e-38
2.0854008839607853e-38 1.754983674383165e-38 2.0674878054316283e-38
2.2421621813469525e-38 2.205426021065906e-38 2.131734397294146e-38
1.5529371750447985e-38 2.0302295213427743e-38 1.8097085833104422e-38
1.7178226404077353e-38 2.2320948327897037e-38 1.8004717843529987e-38
2.314777607898111e-38 1.9657924930189548e-38 1.8280420513788966e-38
2.1678389923573214e-38 2.0209058418805427e-38 1.993357995630074e-38
2.0943836275066467e-38 2.1311196476578468e-38 2.3423432506390766e-38
1.9382632840380616e-38 1.956653784954014e-38 2.1403172102582892e-38
2.020938632264608e-38 1.8831862288066997e-38 1.4699321012895966e-38
2.1954306992497235e-38 1.8189069866899632e-38 1.8831778210159138e-38
1.9382866857224158e-38 2.2964497450235138e-38 1.8648415503505307e-38
1.6077125307167913e-38 1.5709755296566661e-38 1.8372704425455542e-38
1.4791194344112494e-38 1.4515575751761374e-38 1.9750264893794696e-38
1.8740026791909006e-38 1.8648191295751015e-38 1.901553328038298e-38
1.4974697180612757e-38 2.1219380598598977e-38 1.717880514034312e-38
1.6627605790699417e-38 1.2862424717040386e-38 1.7086895375366519e-38
1.3505423129082007e-38 1.2036073407434184e-38 1.7546016804217902e-38
1.9015122699932932e-38 2.3887130576026634e-38 1.8280196306034674e-38
1.423943447508306e-38 2.195337232642153e-38 1.580058185783034e-38
1.644348638287485e-38 -1.6752630565203977e+35 -1.674524055834546e+35
-1.6745256403977962e+35 -1.6745260365386088e+35 -1.6745264326794213e+35
-1.6745260365386088e+35 -1.6745270268906402e+35 -1.6745266307498276e+35
-1.6745307902283596e+35 4.775549496301903e-39 1.9010900587659922e-38
2.2317304951889793e-38 3.820681741416158e-38 4.390095448758847e-38
1.497099775266694e-38 2.2960255719783627e-38 1.1664209432657843e-38
-1.6746411154446607e+35 -1.6745327709324225e+35 -1.6745305921579533e+35
-1.674530394087547e+35 -1.6745305921579533e+35 -1.6745311863691722e+35
-1.6745299979467345e+35 -1.6745311863691722e+35 -1.674530394087547e+35
-1.6745311863691722e+35 -1.6745299979467345e+35 -1.6745305921579533e+35
-1.6745307902283596e+35 -1.6745315825099848e+35 1.2306072792943361e-38
1.9946585246330887e+20 -1.6746292312202836e+35 -1.6745319786507973e+35
8.632650144026784e-39 -1.6746278447274396e+35 1.9101898107336247e-38
3.875620488489091e-38 6.722672209620965e-38 -1.674626656305002e+35
4.2611908438046857e-38 3.9674596280230893e-38 3.3246075115411435e-38
1.8678383905793586e+20 3.766086312466984e-39 4.040941197155047e-38
4.812527520697892e-38 2.3174823513444005e+20 3.8509830053682374e+20
1.1296811396087305e-38 1.9470142528179237e-38 1.2123639147171378e-38
1.7358786513802534e-38 1.4054194028487035e-38 1.0290834642831627e-38
1.4149859273348026e-38 1.3232867775173902e-38 1.2774587125401114e-38
1.3875529875584085e-38 1.5251446620824587e-38 1.8463717359414974e-38
1.6626240925995164e-38 2.2687057169880396e-38 2.2484678536484356e+20
6.98095505841023e-39 1.8092862319532947e-38 1.7174358820315816e-38
3.182339901879516e+20 5.87855495782436e-39 1.6623382277127942e-38
2.2959957243210726e-38 2.559638088558345e+20 7.072612589663252e-39
2.2868271685988418e-38 2.516516802483251e-38 3.7819083423960007e+20
3.8756838271796783e-38 1.4235631351050884e-38 1.49703629644626e-38
2.997891460703348e+20 1.9296748658800612e-39 1.598057163908054e-38
2.1123349614838797e-38 3.655293770423914e-38 3.930789048510173e-38
2.810405243952545e-38 5.510581548104371e-38 3.804945661864884e+20
1.9297225100278483e-39 3.67475528375615e-39 1.855207763538144e-38
2.9401327954823217e+20 3.820631294671442e-38 9.093143444074741e-39
2.6267586342298417e-38 1.1034552783295059e-39 3.967551272942656e-38
2.957343999623181e-38 1.5521403967379834e-38 2.40976427430271e+20
8.541962311311075e-39 1.588886646367973e-38 7.384048090502821e-38
2.6646110688675694e-39 3.6737017875706706e-38 1.5521720660832772e-38
2.7737307408039286e-38 7.072986736353227e-39 3.7472057774780574e-38
1.497061519818618e-38 1.6256152396373123e-38 1.4585248681648613e+20
3.8510393003635796e+20 6.88885751943941e-39 8.008503680485418e-38
1.9297505359971348e-39 3.8206237276597347e-38 1.3409476223229687e-38
2.5716982544502053e-38 3.274707322862001e+20 3.8206385814234566e-38
2.0388833801390587e-38 1.6990930252634162e-38 2.4809120505823005e-39
9.552170985929015e-39 1.4511334021309863e-38 1.579705058570024e-38
3.2156058289354805e-39 1.1032955303045728e-39 1.8643894914659395e-38
2.4614564227036147e-38 5.144225517071905e-39 9.919634883527376e-39
2.0572636515762216e-38 2.8288152229171515e-38 3.1239006535346714e-39
8.633965963284785e-39 1.763385299455871e-38 5.510682441593802e-38
5.1442535430411916e-39 6.154359922871235e-39 1.4235883584774462e-38
6.355569006247322e-38 5.6033749718925747e-39 4.004313497375139e-38
2.736998504158582e-38 7.090264185898966e-38 4.225926607430566e-39
1.2766581507274426e-38 1.4970717492974075e-38 1.8552292034046481e-38
2.997997013819615e+20 1.3776818207861652e-38 1.634826815222398e-38
3.104338526972697e-38 7.072930684414654e-39 1.7817739786838198e-38
1.5246728448895205e-38 1.4971063613694763e-38 3.8758054598863817e-38
3.9125284479618636e-38 1.928722823703399e-38 1.4970867431909757e-38
7.348595519615096e-39 8.266856594197898e-39 1.3960751242990463e-38
3.820685384792165e-38 1.1022005556845494e-38 6.797676429664258e-39
1.2950784993006852e-38 2.3052521414570166e-38 1.2675278504532878e-38
1.5246662587867382e-38 1.9930170597137038e-38 3.930916006151041e-38
2.6268668144712876e-38 2.1032112473125073e-38 2.0481239626023558e-38
1.8277085423443873e-38 4.041150270885924e-38 1.359353957911568e-38
3.2513465067874706e-38 2.213420428804879e-38 3.728913507584454e-38
3.9493091695340756e-38 2.1858902389150609e-38 1.79099480283877e-38
8.267314818795732e-39 1.625704922739029e-38 3.1412820794264636e-38
1.7451350685161974e-38 1.6074050858337184e-38 3.8944116206359937e-38
1.4972100574558363e-38 1.9563659582494418e-38 1.6533004131372848e-38
2.1124722887333836e-38 2.5168175211336953e-38 2.608647412097829e-38
1.5706476258160141e-38 1.607379021682282e-38 1.5798442075075315e-38
1.9104510127673748e-38 8.635385478629146e-39 1.4788185756309588e-38
1.423734093517736e-38 1.873720597810032e-38 1.6900738479574824e-38
1.6992517923794242e-38 1.9380400571926947e-38 2.0023369556700817e-38
1.4238219549314492e-38 1.4514072158509153e-38 1.7821467240753302e-38
1.9015346907687224e-38 1.9015328690807188e-38 2.186138829262632e-38
1.8554730293374407e-38 1.901347897683428e-38 1.1942089720730383e-38
1.9380633187472025e-38 2.0299082036049047e-38 2.3237873965043338e-38
1.4697322761285838e-38 3.949617455196227e-38 1.4513669985849892e-38
2.085011322987703e-38 1.8554357547982896e-38 2.1952233070770034e-38
2.517073398233281e-38 1.3687524667117946e-38 1.7177637858722336e-38
2.5722083270912195e-38 2.1401780613207817e-38 2.461985272744051e-38
1.662628857014295e-38 2.2870794023224202e-38 1.7544521618756467e-38
2.094228503766646e-38 1.3503871891682e-38 3.1048357076678394e-38
2.0942640967476398e-38 2.2228197783841842e-38 1.6901879136524784e-38
2.19528118070358e-38 1.8830620737627605e-38 2.1309982952108363e-38
1.901425389488505e-38 1.9565238845863712e-38 1.6351258523146848e-38
2.6273920211357165e-38 1.6167717851588048e-38 2.0208311526723942e-38
1.8004445991627908e-38 1.7912546035740558e-38 1.9014730336362921e-38
2.4070204615196814e-38 1.9933011029124224e-38 2.0575747398353017e-38
1.8463679524356437e-38 1.4790371781913935e-38 1.7546969687173643e-38
1.2223209810852442e-38 1.1768638398114722e-38 -1.690175579339239e+35
1.2946655366432487e-38 1.691668525609884e-38 1.7644390759010433e-38
1.8925847376069263e-38 1.9107350559660935e-38 2.1677781760039697e-38
2.4621290459664906e-38 3.784577006223136e-38 1.8923212934956332e-38
1.7729173519997477e-38 1.5249877166544543e-38 1.8372087854131239e-38
1.9106855901303028e-38 1.929052689361901e-38 1.818877139032673e-38
2.1219072312936826e-38 1.9290647405286942e-38 2.186194881201205e-38
2.3056014851641728e-38 2.131095405194414e-38 1.8280532617666112e-38
2.0025303348581585e-38 1.6719449694648194e-38 1.8555963436023013e-38
2.342348855832934e-38 2.0668291951533956e-38 1.7086783271489373e-38
2.0484584525457901e-38 1.6535844563360035e-38 1.662749368682227e-38
1.9658241623642486e-38 1.754577297828511e-38 1.6627530120582343e-38
1.7453909456157831e-38 2.04845649072794e-38 2.1586460540418113e-38
1.49744911897385e-38 1.9290619379317656e-38 1.0198943094735063e-38
1.5525093586236401e-38 1.5800750013646058e-38 1.7637328214750235e-38
1.662739979982516e-38 1.8555814898385794e-38 1.6627530120582343e-38
1.7821195388851223e-38 1.332130372125744e-38 2.0392486986487082e-38
1.7361933830153408e-38 1.9565705478252332e-38 1.4239322371205915e-38
2.213699707588819e-38 2.167784762106752e-38 1.7361392928946178e-38
-1.675160059909129e+35 -1.6745252442569836e+35 -1.6745256403977962e+35
-1.6745252442569836e+35 -1.6745256403977962e+35 -1.6745244519753585e+35
-1.6745260365386088e+35 -1.6745266307498276e+35 -1.674527621101859e+35
-1.6745284133834842e+35 3.967315294281264e-38 1.901075064872424e-38
2.2225105118131077e-38 2.516496063265979e-38 4.389958962288422e-38
1.111310397001125e-38 3.967470838410804e-38 -1.6746306177131276e+35
-1.6745311863691722e+35 -1.6745297998763282e+35 -1.6745301960171408e+35
-1.6745299979467345e+35 -1.674529601805922e+35 -1.6745297998763282e+35
-1.6745307902283596e+35 -1.6745307902283596e+35 -1.6745311863691722e+35
-1.6745311863691722e+35 -1.6745305921579533e+35 -1.6745307902283596e+35
1.8459052436827237e-38 1.4786308016367393e-38 3.967455984647082e-38
4.1511269769630644e-38 2.0480136804132135e-38 3.2511371527969005e-38
7.990537352614616e-39 4.004197469862293e-38 -1.674635767543691e+35
6.153098754253343e-39 -1.6746292312202836e+35 4.1877213258395213e-38
5.510443660335481e-38 4.132755954095766e-38 1.61420269644027e+20
2.421247749665063e+20 3.2695230294279207e-38 3.9123546869522873e-38
2.5941789384816722e+20 9.1925179259708e-40 7.990733534399622e-39
1.9378419135898391e-38 1.6715760075791627e-38 1.7726875390515984e-38
1.8187986663186709e-38 1.3782003012179654e-38 1.8743698193885537e-38
2.315425007788629e-38 2.4640760100528235e-38 3.4560863017742696e-38
2.2235232302132753e-38 2.462678354964506e-38 1.5524981482359255e-38
2.2135689664420975e-38 2.5712846434853297e+20 2.3892166842707418e-39
1.5521460019318407e-38 2.1857969124373368e-38 3.505157923169433e+20
3.597384606663563e+20 1.3960162697635447e-38 1.5980515587141967e-38
3.636924709374466e-38 5.419499390000801e-39 5.877953800783165e-38
1.2858136743739552e-38 2.5727293298602555e-39 6.61341689199326e-39
1.212348080044491e-38 8.541980528191111e-39 1.3776650052045933e-38
2.9399774274951106e-39 1.1388815048061016e-38 2.4614323203700283e-38
2.8478755015844744e+20 7.072622398752502e-39 4.849437161728822e-38
3.747123661388048e-38 3.491038048590845e-39 1.9298710476650667e-39
1.827653331184893e-38 1.552150626216773e-38 9.644146611933438e-39
1.0103398361542004e-38 4.4096452438943355e-39 1.0287032920097914e-38
2.6646489039261062e-39 3.123752115897453e-39 9.73588822109432e-39
1.0470563782567463e-38 1.562529063033102e-39 3.82061055545417e-38
3.2328858008184555e-38 1.4970567554038392e-38 1.2583144531801986e-38
3.0861135194053813e-38 3.3250783478251567e-38 1.4973286073059182e-38
2.2228870407104718e-38 2.1035213546626624e-38 2.2962750031050125e-38
5.180493363406174e-38 2.8479400649072574e+20 5.878993564243694e-39
1.2307347974545897e-38 2.2409130638958534e-38 3.6552993756177714e-38
6.337956646368609e-39 2.92065828608685e-38 1.0929889800994638e-38
6.246429435872769e-39 6.338058941156504e-39 2.938997359349162e-38
1.377660380919661e-38 2.893999398643166e+20 5.419685762696556e-39
1.7817449718056083e-38 3.306344949174984e-38 2.8709515238626558e+20
5.87881700063719e-39 1.230741383557372e-38 1.7082821800730726e-38
2.6173077373179868e+20 6.613557021839692e-39 1.6256320552188842e-38
9.919653100407412e-39 1.929992960631463e-39 1.1664545744289281e-38
9.736019943149966e-39 3.288002232536665e-38 2.2317519350554835e-38
2.0480753375456437e-38 1.4327728890021704e-38 5.216808853888231e-38
6.154407567019022e-39 6.613613073778265e-39 1.8001194979190675e-38
1.1756465318355132e-38 2.103189807446003e-38 9.644304958659907e-39
1.8827864383548278e-38 2.737017281558004e-38 3.735885424485204e+20
8.08309311618327e-39 8.634162145069791e-39 1.5521786521860595e-38
3.459184263379561e+20 6.43026858400447e-39 1.7542662095694308e-38
1.9746845725541744e-38 3.875939984538957e-38 1.9563575504586558e-38
2.369953594801054e-38 2.975970619330372e-38 1.0838736737188773e-38
3.765638177218093e-38 2.6635937261824696e-38 2.2593325716900174e-38
3.6554114794949174e-38 4.041109352970766e-38 2.0481239626023558e-38
2.1583367874707348e-38 1.2216091214653672e-38 1.350170408295769e-38
2.1399538535664897e-38 1.7725968750409566e-38 3.8758034980685316e-38
4.022751502309032e-38 1.846095259754486e-38 3.930934783550463e-38
1.1297596123227327e-38 9.46084976630743e-39 4.739421219294681e-38
1.9103651131715117e-38 1.4787494916166676e-38 1.3685394693452172e-38
2.9942704562356827e-38 2.1399818795357762e-38 4.961246766197299e-39
1.0471338700618235e-38 2.0389722224616969e-38 2.4065905431508266e-38
1.7818832799640372e-38 1.7268052438237502e-38 2.1125153085962383e-38
2.3053492514405943e-38 1.5981888859637005e-38 1.97470320982375e-38
1.6716582637990185e-38 3.5269687425145975e-38 9.461614875268952e-39
1.937980221748268e-38 1.7726931442454557e-38 2.3420713987369976e-38
1.7175862413568037e-38 1.6992257282279878e-38 2.2869953244145607e-38
2.2686216390801802e-38 1.6716909140532373e-38 1.2584395891330628e-38
2.2962143268815073e-38 1.598329996719058e-38 1.910697641297096e-38
1.763872951321456e-38 1.9935962163690092e-38 2.0947115313472987e-38
1.718256062022751e-38 2.2048412592167432e-38 1.717902934809741e-38
2.4621085870089115e-38 1.9932058146168483e-38 2.0850076796116958e-38
2.011534518270524e-38 1.85542356350165e-38 1.6993060226299936e-38
1.7360458262870474e-38 1.644195336235488e-38 2.1676576643360378e-38
1.4972651284854843e-38 2.2870531980411373e-38 1.8278897302358245e-38
1.892194195724919e-38 1.7269173477008962e-38 1.9381437532790547e-38
1.974902194205684e-38 2.14935418405472e-38 1.579959113981606e-38
2.1217847578079006e-38 2.323819205979474e-38 1.39625449050248e-38
2.0483033288057894e-38 2.1677025058868962e-38 2.158519937180022e-38
2.1217885413137543e-38 1.8922204000062018e-38 1.9289517958724696e-38
2.1769178649778355e-38 2.296294621283513e-38 1.7636543487610214e-38
2.2412121009881403e-38 2.0667423146486075e-38 1.8279588142501157e-38
1.7361327067918355e-38 2.2136688790226039e-38 2.370248708257641e-38
2.1310375315678373e-38 3.876369622648119e-38 2.1494064524874392e-38
2.0759474442607572e-38 1.7269649918486833e-38 1.5249390915977422e-38
1.7177964361264524e-38 1.387244701896257e-38 1.1027153927403423e-38
1.2682975836997414e-38 8.186829840198772e-39 9.843484121080572e-39
1.19555421859879e-38 8.82817472005249e-39 1.4701152509988838e-38
2.2045675856266606e-38 2.627341574391001e-38 1.7085764527505809e-38
2.1493962230086496e-38 2.195346621341864e-38 2.2504573077363697e-38
1.6810790532448278e-38 1.9749452140685388e-38 2.2137239500522518e-38
1.3780219159234568e-38 1.6351725155535468e-38 3.0315559255147446e-38
2.1310748061069884e-38 1.7912742217525564e-38 2.002504270706722e-38
1.405576348276708e-38 1.9014954544117213e-38 1.864753829066664e-38
1.1300922805781634e-38 1.5249680984759537e-38 1.873961621145896e-38
1.9749628704291893e-38 1.1300838727873775e-38 2.1769981593798413e-38
2.048443458652222e-38 2.0668011691841091e-38 1.249478425583552e-38
1.8372143906069812e-38 2.3055828478945973e-38 2.002510716679658e-38
1.49741927131656e-38 1.993319740181998e-38 2.1770037645736986e-38
2.0116924446074535e-38 1.6168054163219486e-38 1.7178038630083133e-38
2.0392393099489972e-38 2.1218716383126887e-38 1.9106659719518022e-38
1.892296910902354e-38 1.9474094189848633e-38 2.351958400181888e-38
1.864736032576167e-38 2.2412419486454304e-38 1.681052848963545e-38
2.2228766711018358e-38 6.433005319905297e-39 1.837133956075129e-38
1.9289750574269774e-38 2.195289588494366e-38 -1.6751006387872435e+35
-1.6745250461865773e+35 -1.674526828820234e+35 -1.6745250461865773e+35
-1.6745278191722653e+35 -1.6745252442569836e+35 -1.674527621101859e+35
-1.6745252442569836e+35 -1.6745284133834842e+35 -1.674526828820234e+35
-1.674529601805922e+35 -1.6745278191722653e+35 -1.6745315825099848e+35
-1.6745305921579533e+35 -1.6745339593548602e+35 -1.674531780580391e+35
-1.6745329690028288e+35 -1.674530394087547e+35 -1.6745327709324225e+35
-1.6745294037355156e+35 -1.6745319786507973e+35 -1.674530394087547e+35
-1.6745311863691722e+35 -1.6745280172426716e+35 -1.6745311863691722e+35
-1.6745292056651093e+35 -1.67453237479161e+35 -1.6745284133834842e+35
-1.674531780580391e+35 -1.674530988298766e+35 -1.6745335632140476e+35
1.395910751989181e-38 4.18787967256599e-38 3.398734518745769e-39
4.0593195067743597e-38 1.7725043893423112e-38 -1.674650424753756e+35
2.3865617642068692e+20 -1.6746425019375047e+35 -1.674531780580391e+35
-1.6745339593548602e+35 1.9469237289371283e-38 4.0042050368740003e-38
7.072108122216095e-39 1.7756175125066233e+20 1.405165207307275e-38
3.4348342092643194e-38 2.176578750749469e-38 2.282902974533636e+20
3.2514588971605846e+20 2.277632408595328e-38 1.258255598644697e-38
1.607296765462426e-38 1.3777836951845216e-38 1.5708185842286618e-38
1.0567247771412019e-38 1.856152238703099e-38 -1.6897002103641532e+35
-1.700173381166914e+35 3.08524275253965e-38 2.0399997946255863e-38
2.1588338280360309e-38 1.6075892164519307e-38 2.029857756860189e-38
1.2399734181000368e-38 7.256329824828557e-39 1.7358178350269017e-38
1.992936765311698e-38 1.7756491784415032e+20 8.358085328120837e-39
1.772547409205166e-38 1.5704990881787957e-38 2.940117557341543e-39
4.059356781313511e-38 6.208609791619106e-38 4.6847397506197976e-39
1.9299270996036397e-39 2.3889560427563773e-39 1.2123620930291341e-38
1.3041863787994108e-38 1.8503445572177047e-40 3.1236680379895935e-39
3.5083810789047145e-38 1.120518189080357e-38 7.440150756080222e-39
6.338068750245755e-39 3.857367174692796e-38 1.3592858548062019e-38
3.3075352120905814e-39 3.674737066876114e-39 3.618583674294304e-38
1.5521524479047766e-38 1.7909415534971257e-38 3.505242365662446e+20
2.1491168040948633e-38 1.4970623605976965e-38 2.709557818419556e+20
3.7127495887744716e+20 1.6348137831466797e-38 1.469499660583506e-38
1.2674717985147148e-38 2.5135330151387208e+20 2.51661937753084e-38
8.909939084147379e-39 1.4972174843376972e-38 8.912331100625981e-39
1.4149316970842332e-38 1.4242031081137455e-38 1.4518826764198608e-38
2.1038894757692405e-38 1.1761837896667353e-38 9.830788356993789e-39
7.717376637769922e-39 6.890268626992985e-39 4.5370975431200705e-38
1.3684974303912875e-38 2.4789677120767918e+20 3.182408159561368e+20
1.772587626471092e-38 2.048080942739501e-38 3.6749514655411555e-39
2.6864782777041656e+20 2.571677795492626e-38 2.112341547586662e-38
3.3993791160393586e-39 1.855215190420005e-38 1.6531958762718462e-38
2.1766432104788278e-38 5.603506693948221e-39 7.531940009388891e-39
2.2593101509145882e-38 1.5888922515618304e-38 1.746349994284767e-39
8.542018363249648e-39 1.5521730469922022e-38 1.184817049375594e-38
3.643633056399449e+20 5.52478735141631e-40 1.5246261816506585e-38
7.7155549497663e-39 1.470833696721543e-39 4.409457469900116e-39
1.570534541029943e-38 1.6623606484882234e-38 6.33825512294151e-39
