# .PCD v0.7 - Point Cloud Data file format
VERSION 0.7
FIELDS x y z
SIZE 4 4 4
TYPE F F F
COUNT 1 1 1
WIDTH 414
HEIGHT 1
VIEWPOINT 0 0 0 1 0 0 0
POINTS 414
DATA ascii
-167452762110185904985172409776603136.000000 -167452742303145276419088011390615552.000000 -167452841338348419249510003320553472.000000
-167452821531307790683425604934565888.000000 -167452940373551562079931995250491392.000000 -167452742303145276419088011390615552.000000
-167452940373551562079931995250491392.000000 -167452722496104647853003613004627968.000000 -167452861145389047815594401706541056.000000
-167452682882023390720834816232652800.000000 -167453059215795333476438385566416896.000000 -167452979987632819212100792022466560.000000
-167452999794673447778185190408454144.000000 -167452920566510933513847596864503808.000000 -167453138443957847740775979110367232.000000
-167452979987632819212100792022466560.000000 -167453118636917219174691580724379648.000000 -167453138443957847740775979110367232.000000
-167453178058039104872944775882342400.000000 -167453059215795333476438385566416896.000000 -167453296900282876269451166198267904.000000
-167453079022835962042522783952404480.000000 -167453138443957847740775979110367232.000000 -167453178058039104872944775882342400.000000
-167453257286201619137282369426292736.000000 -167452960180592190646016393636478976.000000 -167453217672120362005113572654317568.000000
-167453118636917219174691580724379648.000000 -167453158250998476306860377496354816.000000 -167453098829876590608607182338392064.000000
-167453158250998476306860377496354816.000000 -167453059215795333476438385566416896.000000 -167453178058039104872944775882342400.000000
-167452880952429676381678800092528640.000000 -167452900759470304947763198478516224.000000 -167452762110185904985172409776603136.000000
-167452979987632819212100792022466560.000000 -167452544232738990758244027530739712.000000 -167452504618657733626075230758764544.000000
-167452385776413962229568840442839040.000000 -167452544232738990758244027530739712.000000 0.000000
0.000000 0.000000 0.000000
-167465299966903787316596588106743808.000000 -167453336514364133401619962970243072.000000 -167452365969373333663484442056851456.000000
-167451811372235733813121287249199104.000000 -167451831179276362379205685635186688.000000 -167451791565195105247036888863211520.000000
-167451751951113848114868092091236352.000000 -167451751951113848114868092091236352.000000 -167451831179276362379205685635186688.000000
-167451791565195105247036888863211520.000000 -167451712337032590982699295319261184.000000 -167451791565195105247036888863211520.000000
-167451771758154476680952490477223936.000000 -167451732144073219548783693705248768.000000 -167451732144073219548783693705248768.000000
-167451751951113848114868092091236352.000000 -167451771758154476680952490477223936.000000 -167451831179276362379205685635186688.000000
-167451751951113848114868092091236352.000000 -167451791565195105247036888863211520.000000 -167451811372235733813121287249199104.000000
-167451811372235733813121287249199104.000000 -167451732144073219548783693705248768.000000 -167451771758154476680952490477223936.000000
-167451751951113848114868092091236352.000000 -167451732144073219548783693705248768.000000 -167451751951113848114868092091236352.000000
-167451791565195105247036888863211520.000000 -167451811372235733813121287249199104.000000 -167451850986316990945290084021174272.000000
-167451732144073219548783693705248768.000000 -167451771758154476680952490477223936.000000 -167451791565195105247036888863211520.000000
-167451831179276362379205685635186688.000000 -167451732144073219548783693705248768.000000 -167451771758154476680952490477223936.000000
-167451811372235733813121287249199104.000000 -167451850986316990945290084021174272.000000 -167451712337032590982699295319261184.000000
-167451771758154476680952490477223936.000000 -167451811372235733813121287249199104.000000 -167451850986316990945290084021174272.000000
-167451751951113848114868092091236352.000000 -167451791565195105247036888863211520.000000 -167451791565195105247036888863211520.000000
-167451890600398248077458880793149440.000000 -167452009442642019473965271109074944.000000 -167452623460901505022581621074690048.000000
-167452762110185904985172409776603136.000000 -167452623460901505022581621074690048.000000 -167452128284885790870471661425000448.000000
-167452128284885790870471661425000448.000000 -167452167898967048002640458196975616.000000 -167452742303145276419088011390615552.000000
-167452663074982762154750417846665216.000000 -167453039408754704910353987180429312.000000 -167452920566510933513847596864503808.000000
-167453138443957847740775979110367232.000000 -167453039408754704910353987180429312.000000 -167453257286201619137282369426292736.000000
-167453019601714076344269588794441728.000000 -167453178058039104872944775882342400.000000 -167452960180592190646016393636478976.000000
-167453039408754704910353987180429312.000000 -167452821531307790683425604934565888.000000 -167452900759470304947763198478516224.000000
-167452742303145276419088011390615552.000000 -167453019601714076344269588794441728.000000 -167452781917226533551256808162590720.000000
-167452960180592190646016393636478976.000000 -167452742303145276419088011390615552.000000 -167453019601714076344269588794441728.000000
-167452841338348419249510003320553472.000000 -167453138443957847740775979110367232.000000 -167452762110185904985172409776603136.000000
-167452821531307790683425604934565888.000000 -167452742303145276419088011390615552.000000 -167452841338348419249510003320553472.000000
-167452682882023390720834816232652800.000000 -167453039408754704910353987180429312.000000 -167452841338348419249510003320553472.000000
-167452960180592190646016393636478976.000000 -167452702689064019286919214618640384.000000 -167452702689064019286919214618640384.000000
-167452623460901505022581621074690048.000000 -167452841338348419249510003320553472.000000 -167452682882023390720834816232652800.000000
-167452861145389047815594401706541056.000000 -167452762110185904985172409776603136.000000 -167452781917226533551256808162590720.000000
-167452465004576476493906433986789376.000000 -167452484811617105059990832372776960.000000 -167452465004576476493906433986789376.000000
-167452524425698362192159629144752128.000000 -167452405583454590795653238828826624.000000 0.000000
0.000000 0.000000 -168876135663835920942209223616364544.000000
0.000000 0.000000 0.000000
-167464250193750473314123473649401856.000000 -167453217672120362005113572654317568.000000 -167452841338348419249510003320553472.000000
-167453039408754704910353987180429312.000000 -167453019601714076344269588794441728.000000 -167453197865079733439029174268329984.000000
-167452841338348419249510003320553472.000000 -167452880952429676381678800092528640.000000 -167452663074982762154750417846665216.000000
-167452722496104647853003613004627968.000000 -167452702689064019286919214618640384.000000 -167452900759470304947763198478516224.000000
-167452722496104647853003613004627968.000000 -167452900759470304947763198478516224.000000 -167452762110185904985172409776603136.000000
-167452900759470304947763198478516224.000000 -167452781917226533551256808162590720.000000 -167452781917226533551256808162590720.000000
-167452762110185904985172409776603136.000000 -167452940373551562079931995250491392.000000 -167452722496104647853003613004627968.000000
-167453098829876590608607182338392064.000000 -167452801724267162117341206548578304.000000 -167452999794673447778185190408454144.000000
-167452841338348419249510003320553472.000000 -167453039408754704910353987180429312.000000 -167452841338348419249510003320553472.000000
-167453019601714076344269588794441728.000000 -167452920566510933513847596864503808.000000 -167453098829876590608607182338392064.000000
-167452821531307790683425604934565888.000000 -167453039408754704910353987180429312.000000 -167452940373551562079931995250491392.000000
-167453098829876590608607182338392064.000000 -167452880952429676381678800092528640.000000 -167453098829876590608607182338392064.000000
-167452880952429676381678800092528640.000000 -167453098829876590608607182338392064.000000 -167452940373551562079931995250491392.000000
-167453059215795333476438385566416896.000000 -167452861145389047815594401706541056.000000 -167453039408754704910353987180429312.000000
-167452841338348419249510003320553472.000000 -167453138443957847740775979110367232.000000 -167452999794673447778185190408454144.000000
-167453118636917219174691580724379648.000000 -167452880952429676381678800092528640.000000 -167453118636917219174691580724379648.000000
-167452999794673447778185190408454144.000000 -167453098829876590608607182338392064.000000 -167452940373551562079931995250491392.000000
-167453138443957847740775979110367232.000000 -167452979987632819212100792022466560.000000 -167453217672120362005113572654317568.000000
-167452861145389047815594401706541056.000000 -167453197865079733439029174268329984.000000 -167453039408754704910353987180429312.000000
-167453197865079733439029174268329984.000000 -167453079022835962042522783952404480.000000 -167453158250998476306860377496354816.000000
-167452960180592190646016393636478976.000000 -167453118636917219174691580724379648.000000 -167452940373551562079931995250491392.000000
-167453158250998476306860377496354816.000000 -167452999794673447778185190408454144.000000 -167453138443957847740775979110367232.000000
-167452999794673447778185190408454144.000000 -167453197865079733439029174268329984.000000 -167453019601714076344269588794441728.000000
-167453118636917219174691580724379648.000000 -167452920566510933513847596864503808.000000 -167453158250998476306860377496354816.000000
-167452920566510933513847596864503808.000000 -167453098829876590608607182338392064.000000 -167452880952429676381678800092528640.000000
-167453138443957847740775979110367232.000000 -167453039408754704910353987180429312.000000 0.000000
0.000000 0.000000 0.000000
0.000000 0.000000 0.000000
0.000000 0.000000 0.000000
0.000000 0.000000 -167466884530154072603348458985750528.000000
-167452940373551562079931995250491392.000000 0.000000 0.000000
0.000000 0.000000 0.000000
0.000000 0.000000 -167472173010001899747882828044435456.000000
-167452999794673447778185190408454144.000000 -167452742303145276419088011390615552.000000 -167452841338348419249510003320553472.000000
-167452564039779619324328425916727296.000000 -167452821531307790683425604934565888.000000 -167452742303145276419088011390615552.000000
-167453039408754704910353987180429312.000000 -167452880952429676381678800092528640.000000 -167453079022835962042522783952404480.000000
-167452861145389047815594401706541056.000000 -167453098829876590608607182338392064.000000 -167452841338348419249510003320553472.000000
-167452979987632819212100792022466560.000000 -167452742303145276419088011390615552.000000 -167452920566510933513847596864503808.000000
-167452742303145276419088011390615552.000000 -167452960180592190646016393636478976.000000 -167452722496104647853003613004627968.000000
-167452999794673447778185190408454144.000000 -167452781917226533551256808162590720.000000 -167452900759470304947763198478516224.000000
-167452682882023390720834816232652800.000000 -167452940373551562079931995250491392.000000 -167452762110185904985172409776603136.000000
-167452920566510933513847596864503808.000000 -167452722496104647853003613004627968.000000 -167452940373551562079931995250491392.000000
-167452742303145276419088011390615552.000000 -167452821531307790683425604934565888.000000 -167452603653860876456497222688702464.000000
-167452762110185904985172409776603136.000000 -167452583846820247890412824302714880.000000 -167452841338348419249510003320553472.000000
-167452623460901505022581621074690048.000000 -167452722496104647853003613004627968.000000 -167452544232738990758244027530739712.000000
-167452781917226533551256808162590720.000000 -167452544232738990758244027530739712.000000 -167452564039779619324328425916727296.000000
-167452445197535847927822035600801792.000000 -167452524425698362192159629144752128.000000 -167452365969373333663484442056851456.000000
0.000000 0.000000 0.000000
-169019815936555539318435115570298880.000000 0.000000 0.000000
0.000000 0.000000 0.000000
0.000000 0.000000 0.000000
0.000000 0.000000 0.000000
0.000000 -167470707288995385857637347481354240.000000 -167452861145389047815594401706541056.000000
-167453098829876590608607182338392064.000000 -167452029249682648040049669495062528.000000 -167452009442642019473965271109074944.000000
-167452306548251447965231246898888704.000000 -167452405583454590795653238828826624.000000 -167452425390495219361737637214814208.000000
-167452484811617105059990832372776960.000000 -167452445197535847927822035600801792.000000 -167452425390495219361737637214814208.000000
-167452504618657733626075230758764544.000000 -167452484811617105059990832372776960.000000 -167452465004576476493906433986789376.000000
-167452484811617105059990832372776960.000000 -167452465004576476493906433986789376.000000 -167452465004576476493906433986789376.000000
-167452504618657733626075230758764544.000000 -167452504618657733626075230758764544.000000 -167452504618657733626075230758764544.000000
-167452484811617105059990832372776960.000000 -167452524425698362192159629144752128.000000 -167452504618657733626075230758764544.000000
-167452445197535847927822035600801792.000000 -167452524425698362192159629144752128.000000 -167452544232738990758244027530739712.000000
-167452544232738990758244027530739712.000000 -167452544232738990758244027530739712.000000 -167452663074982762154750417846665216.000000
-167452603653860876456497222688702464.000000 -167452663074982762154750417846665216.000000 -167452682882023390720834816232652800.000000
-167452801724267162117341206548578304.000000 -167452623460901505022581621074690048.000000 -167452702689064019286919214618640384.000000
-167452722496104647853003613004627968.000000 -167452682882023390720834816232652800.000000 -167452762110185904985172409776603136.000000
-167452821531307790683425604934565888.000000 -167452722496104647853003613004627968.000000 -167452781917226533551256808162590720.000000
-167452781917226533551256808162590720.000000 -167452722496104647853003613004627968.000000 -167452722496104647853003613004627968.000000
-167452781917226533551256808162590720.000000 -167452762110185904985172409776603136.000000 -167452781917226533551256808162590720.000000
-167452682882023390720834816232652800.000000 -167452722496104647853003613004627968.000000 -167452583846820247890412824302714880.000000
-167452564039779619324328425916727296.000000 -167452504618657733626075230758764544.000000 -167452524425698362192159629144752128.000000
-167452385776413962229568840442839040.000000 -167452266934170190833062450126913536.000000 -167452247127129562266978051740925952.000000
-167452365969373333663484442056851456.000000 -167452583846820247890412824302714880.000000 -167453019601714076344269588794441728.000000
0.000000 0.000000 -167462526981215788064780814068482048.000000
-167452880952429676381678800092528640.000000 -167452207513048305134809254968950784.000000 -167451732144073219548783693705248768.000000
-167451811372235733813121287249199104.000000 -167451712337032590982699295319261184.000000 -167451732144073219548783693705248768.000000
-167451732144073219548783693705248768.000000 -167451831179276362379205685635186688.000000 -167451771758154476680952490477223936.000000
-167451692529991962416614896933273600.000000 -167451692529991962416614896933273600.000000 -167451771758154476680952490477223936.000000
-167451692529991962416614896933273600.000000 -167451732144073219548783693705248768.000000 -167451712337032590982699295319261184.000000
-167451771758154476680952490477223936.000000 -167451573687748191020108506617348096.000000 -167451712337032590982699295319261184.000000
-167451692529991962416614896933273600.000000 -167451831179276362379205685635186688.000000 -167451771758154476680952490477223936.000000
-167451692529991962416614896933273600.000000 -167451712337032590982699295319261184.000000 -167451771758154476680952490477223936.000000
-167451573687748191020108506617348096.000000 -167451672722951333850530498547286016.000000 -167451672722951333850530498547286016.000000
-167451831179276362379205685635186688.000000 -167451712337032590982699295319261184.000000 -167451712337032590982699295319261184.000000
-167451712337032590982699295319261184.000000 -167451811372235733813121287249199104.000000 -167451751951113848114868092091236352.000000
-167451751951113848114868092091236352.000000 -167451692529991962416614896933273600.000000 -167451831179276362379205685635186688.000000
-167451771758154476680952490477223936.000000 -167451751951113848114868092091236352.000000 -167451732144073219548783693705248768.000000
-167451850986316990945290084021174272.000000 -167451771758154476680952490477223936.000000 -167451771758154476680952490477223936.000000
-167451732144073219548783693705248768.000000 -167451831179276362379205685635186688.000000 -167451831179276362379205685635186688.000000
-167451930214479505209627677565124608.000000 -167452385776413962229568840442839040.000000 -167452564039779619324328425916727296.000000
-167452385776413962229568840442839040.000000 -167452068863763905172218466267037696.000000 -167451930214479505209627677565124608.000000
-167451989635601390907880872723087360.000000 -167452385776413962229568840442839040.000000 -167452405583454590795653238828826624.000000
-167452465004576476493906433986789376.000000 -167452564039779619324328425916727296.000000 -167452603653860876456497222688702464.000000
-167452682882023390720834816232652800.000000 -167452682882023390720834816232652800.000000 -167452643267942133588666019460677632.000000
-167452682882023390720834816232652800.000000 -167452623460901505022581621074690048.000000 -167452643267942133588666019460677632.000000
-167452623460901505022581621074690048.000000 -167452583846820247890412824302714880.000000 -167452643267942133588666019460677632.000000
-167452643267942133588666019460677632.000000 -167452564039779619324328425916727296.000000 -167452583846820247890412824302714880.000000
-167452702689064019286919214618640384.000000 0.000000 0.000000
-167473084133870813787765153799864320.000000 -167453197865079733439029174268329984.000000 -167452385776413962229568840442839040.000000
-167452484811617105059990832372776960.000000 -167452583846820247890412824302714880.000000 -167452583846820247890412824302714880.000000
-167452643267942133588666019460677632.000000 -167452623460901505022581621074690048.000000 -167452583846820247890412824302714880.000000
-167452643267942133588666019460677632.000000 -167452603653860876456497222688702464.000000 -167452583846820247890412824302714880.000000
-167452583846820247890412824302714880.000000 -167452663074982762154750417846665216.000000 -167452682882023390720834816232652800.000000
-167452564039779619324328425916727296.000000 -167452524425698362192159629144752128.000000 -167452385776413962229568840442839040.000000
-167452365969373333663484442056851456.000000 -167452286741210819399146848512901120.000000 -167452326355292076531315645284876288.000000
0.000000 0.000000 0.000000
0.000000 -168890535382372888485566850229338112.000000 0.000000
0.000000 0.000000 0.000000
0.000000 0.000000 0.000000
0.000000 0.000000 0.000000
0.000000 -167466745880869672640757670283837440.000000 -167452781917226533551256808162590720.000000
-167452702689064019286919214618640384.000000 0.000000 0.000000
0.000000 0.000000 0.000000
0.000000 0.000000 0.000000
0.000000 0.000000 -167462526981215788064780814068482048.000000
-167453217672120362005113572654317568.000000 -167453158250998476306860377496354816.000000 -167453079022835962042522783952404480.000000
-167453039408754704910353987180429312.000000 -167452940373551562079931995250491392.000000 -167452999794673447778185190408454144.000000
-167452861145389047815594401706541056.000000 -167452841338348419249510003320553472.000000 -167452861145389047815594401706541056.000000
-167452781917226533551256808162590720.000000 -167452781917226533551256808162590720.000000 -167452861145389047815594401706541056.000000
-167452861145389047815594401706541056.000000 -167452821531307790683425604934565888.000000 -167452880952429676381678800092528640.000000
-167452861145389047815594401706541056.000000 -167452861145389047815594401706541056.000000 -167452861145389047815594401706541056.000000
-167452960180592190646016393636478976.000000 -167452861145389047815594401706541056.000000 -167452861145389047815594401706541056.000000
-167452880952429676381678800092528640.000000 -167452801724267162117341206548578304.000000 -167452900759470304947763198478516224.000000
-167452880952429676381678800092528640.000000 -167452960180592190646016393636478976.000000 -167452781917226533551256808162590720.000000
-167452841338348419249510003320553472.000000 -167452861145389047815594401706541056.000000 -167452861145389047815594401706541056.000000
-167452762110185904985172409776603136.000000 -167452880952429676381678800092528640.000000 -167452801724267162117341206548578304.000000
-167452821531307790683425604934565888.000000 -167452742303145276419088011390615552.000000 -167452742303145276419088011390615552.000000
-167452861145389047815594401706541056.000000 -167452801724267162117341206548578304.000000 -167452781917226533551256808162590720.000000
-167452841338348419249510003320553472.000000 -167452920566510933513847596864503808.000000 -167452900759470304947763198478516224.000000
-167452781917226533551256808162590720.000000 -167452762110185904985172409776603136.000000 -167452841338348419249510003320553472.000000
-167452841338348419249510003320553472.000000 -167452801724267162117341206548578304.000000 -167452841338348419249510003320553472.000000
-167452861145389047815594401706541056.000000 -167452821531307790683425604934565888.000000 -167452880952429676381678800092528640.000000
-167452880952429676381678800092528640.000000 -167452861145389047815594401706541056.000000 -167452841338348419249510003320553472.000000
0.000000 0.000000 0.000000
0.000000 0.000000 0.000000
0.000000 0.000000 0.000000
0.000000 0.000000 -167470845938279785820228136183267328.000000
-167453415742526647665957556514193408.000000 -167453059215795333476438385566416896.000000 -167452722496104647853003613004627968.000000
0.000000 0.000000 0.000000
0.000000 0.000000 0.000000
0.000000 -167485641797629324685273730515992576.000000 -167453059215795333476438385566416896.000000
-167452702689064019286919214618640384.000000 -167452663074982762154750417846665216.000000 -167452702689064019286919214618640384.000000
-167452682882023390720834816232652800.000000 -167452781917226533551256808162590720.000000 -167452841338348419249510003320553472.000000
-167452742303145276419088011390615552.000000 -167452682882023390720834816232652800.000000 -167452702689064019286919214618640384.000000
-167452682882023390720834816232652800.000000 -167452702689064019286919214618640384.000000 -167452702689064019286919214618640384.000000
-167452762110185904985172409776603136.000000 -167452682882023390720834816232652800.000000 -167452702689064019286919214618640384.000000
-167452682882023390720834816232652800.000000 -167452722496104647853003613004627968.000000 -167452682882023390720834816232652800.000000
-167452702689064019286919214618640384.000000 -167452682882023390720834816232652800.000000 -167452682882023390720834816232652800.000000
-167452623460901505022581621074690048.000000 -167452702689064019286919214618640384.000000 -167452623460901505022581621074690048.000000
-167452663074982762154750417846665216.000000 -167452583846820247890412824302714880.000000 -167452702689064019286919214618640384.000000
-167452623460901505022581621074690048.000000 -167452564039779619324328425916727296.000000 -167452544232738990758244027530739712.000000
-167452564039779619324328425916727296.000000 -167452564039779619324328425916727296.000000 -167452623460901505022581621074690048.000000
-167452524425698362192159629144752128.000000 -167452524425698362192159629144752128.000000 -167452544232738990758244027530739712.000000
-167452564039779619324328425916727296.000000 -167452465004576476493906433986789376.000000 -167452465004576476493906433986789376.000000
-167452405583454590795653238828826624.000000 -167452524425698362192159629144752128.000000 0.000000
0.000000 -168912719267876882500093042535432192.000000 -170017338116691384460906630677004288.000000
-170017338116691384460906630677004288.000000 0.000000 0.000000
0.000000 0.000000 0.000000
0.000000 0.000000 0.000000
0.000000 0.000000 0.000000
-167469261375029500533476265304260608.000000 0.000000 -167463972895181673388941896245575680.000000
-167452108477845162304387263039012864.000000 -167451950021520133775712075951112192.000000 -167451989635601390907880872723087360.000000
-167452167898967048002640458196975616.000000 -167452088670804533738302864653025280.000000 -167452148091926419436556059810988032.000000
-167452128284885790870471661425000448.000000 -167452167898967048002640458196975616.000000 -167452128284885790870471661425000448.000000
-167452207513048305134809254968950784.000000 -167452187706007676568724856582963200.000000 -167452247127129562266978051740925952.000000
-167452227320088933700893653354938368.000000 -167452227320088933700893653354938368.000000 -167452207513048305134809254968950784.000000
-167452247127129562266978051740925952.000000 -167452306548251447965231246898888704.000000 -167452247127129562266978051740925952.000000
-167452286741210819399146848512901120.000000 -167452266934170190833062450126913536.000000 -167452286741210819399146848512901120.000000
-167452306548251447965231246898888704.000000 -167452286741210819399146848512901120.000000 -167452365969373333663484442056851456.000000
-167452365969373333663484442056851456.000000 -167452405583454590795653238828826624.000000 -167452365969373333663484442056851456.000000
-167452484811617105059990832372776960.000000 -167452504618657733626075230758764544.000000 -167452465004576476493906433986789376.000000
-167452445197535847927822035600801792.000000 -167452465004576476493906433986789376.000000 -167452465004576476493906433986789376.000000
-167452484811617105059990832372776960.000000 -167452504618657733626075230758764544.000000 -167452504618657733626075230758764544.000000
-167452564039779619324328425916727296.000000 -167452643267942133588666019460677632.000000 -167452524425698362192159629144752128.000000
-167452445197535847927822035600801792.000000 -167452445197535847927822035600801792.000000 -167452484811617105059990832372776960.000000
-167452405583454590795653238828826624.000000 -167452544232738990758244027530739712.000000 -167452623460901505022581621074690048.000000
-167452564039779619324328425916727296.000000 -167452425390495219361737637214814208.000000 -167452385776413962229568840442839040.000000
-167452365969373333663484442056851456.000000 -167452365969373333663484442056851456.000000 -167452247127129562266978051740925952.000000
-167452167898967048002640458196975616.000000 -167452068863763905172218466267037696.000000 -167452128284885790870471661425000448.000000
-167452247127129562266978051740925952.000000 -167452465004576476493906433986789376.000000 -167452445197535847927822035600801792.000000
-167452544232738990758244027530739712.000000 -167452544232738990758244027530739712.000000 -167452465004576476493906433986789376.000000
-167452049056723276606134067881050112.000000 -167451751951113848114868092091236352.000000 -167451811372235733813121287249199104.000000
-167451811372235733813121287249199104.000000 -167451732144073219548783693705248768.000000 -167451751951113848114868092091236352.000000
-167451791565195105247036888863211520.000000 -167451791565195105247036888863211520.000000 -167451692529991962416614896933273600.000000
-167451732144073219548783693705248768.000000 -167451771758154476680952490477223936.000000 -167451712337032590982699295319261184.000000
-167451672722951333850530498547286016.000000 -167451732144073219548783693705248768.000000 -167451771758154476680952490477223936.000000
-167451692529991962416614896933273600.000000 -167451712337032590982699295319261184.000000 -167451712337032590982699295319261184.000000
-167451811372235733813121287249199104.000000 -167451771758154476680952490477223936.000000 -167451672722951333850530498547286016.000000
-167451712337032590982699295319261184.000000 -167451732144073219548783693705248768.000000 -167451692529991962416614896933273600.000000
-167451732144073219548783693705248768.000000 -167451751951113848114868092091236352.000000 -167451791565195105247036888863211520.000000
-167451732144073219548783693705248768.000000 -167451692529991962416614896933273600.000000 -167451732144073219548783693705248768.000000
-167451811372235733813121287249199104.000000 -167451771758154476680952490477223936.000000 -167451692529991962416614896933273600.000000
-167451732144073219548783693705248768.000000 -167451791565195105247036888863211520.000000 -167451771758154476680952490477223936.000000
-167451712337032590982699295319261184.000000 -167451751951113848114868092091236352.000000 -167451831179276362379205685635186688.000000
-167451811372235733813121287249199104.000000 -167451712337032590982699295319261184.000000 -167451771758154476680952490477223936.000000
-167451791565195105247036888863211520.000000 -167451831179276362379205685635186688.000000 -167451870793357619511374482407161856.000000
-167452187706007676568724856582963200.000000 -167452306548251447965231246898888704.000000 -167452266934170190833062450126913536.000000
-167452029249682648040049669495062528.000000 -167451930214479505209627677565124608.000000 -167451989635601390907880872723087360.000000
-167452286741210819399146848512901120.000000 -167452385776413962229568840442839040.000000 -167452405583454590795653238828826624.000000
-167452385776413962229568840442839040.000000 -167452524425698362192159629144752128.000000 -167452524425698362192159629144752128.000000
-167452544232738990758244027530739712.000000 -167452544232738990758244027530739712.000000 -167452544232738990758244027530739712.000000
-167452445197535847927822035600801792.000000 -167452504618657733626075230758764544.000000 -167452544232738990758244027530739712.000000
-167452504618657733626075230758764544.000000 -167452504618657733626075230758764544.000000 -167452504618657733626075230758764544.000000
-167452524425698362192159629144752128.000000 -167452603653860876456497222688702464.000000 0.000000
0.000000 0.000000 -167486295429970067366058877253582848.000000
-167452702689064019286919214618640384.000000 -167452187706007676568724856582963200.000000 -167452187706007676568724856582963200.000000
-167452405583454590795653238828826624.000000 -167452425390495219361737637214814208.000000 -167452544232738990758244027530739712.000000
-167452544232738990758244027530739712.000000 -167452544232738990758244027530739712.000000 -167452544232738990758244027530739712.000000
-167452603653860876456497222688702464.000000 -167452544232738990758244027530739712.000000 -167452583846820247890412824302714880.000000
-167452544232738990758244027530739712.000000 -167452583846820247890412824302714880.000000 -167452504618657733626075230758764544.000000
-167452465004576476493906433986789376.000000 -167452306548251447965231246898888704.000000 -167452128284885790870471661425000448.000000
-167452068863763905172218466267037696.000000 0.000000 0.000000
0.000000 0.000000 0.000000
0.000000 0.000000 0.000000
0.000000 0.000000 0.000000
0.000000 0.000000 -167467280670966643925036426705502208.000000
-167452722496104647853003613004627968.000000 -167452603653860876456497222688702464.000000 -167452564039779619324328425916727296.000000
-167452405583454590795653238828826624.000000 -167452207513048305134809254968950784.000000 -167452286741210819399146848512901120.000000
0.000000 0.000000 0.000000
0.000000 0.000000 0.000000
0.000000 0.000000 0.000000
0.000000 0.000000 0.000000
0.000000 0.000000 0.000000
0.000000 0.000000 0.000000
0.000000 -167463854052937901992435505929650176.000000 -167453237479160990571197971040305152.000000
-167453158250998476306860377496354816.000000 -167453158250998476306860377496354816.000000 -167453079022835962042522783952404480.000000
-167453118636917219174691580724379648.000000 -167453059215795333476438385566416896.000000 -167452999794673447778185190408454144.000000
-167452880952429676381678800092528640.000000 -167452999794673447778185190408454144.000000 -167452821531307790683425604934565888.000000
-167452861145389047815594401706541056.000000 -167452841338348419249510003320553472.000000 -167452861145389047815594401706541056.000000
-167452841338348419249510003320553472.000000 -167452900759470304947763198478516224.000000 -167452821531307790683425604934565888.000000
-167452742303145276419088011390615552.000000 -167452682882023390720834816232652800.000000 -167452702689064019286919214618640384.000000
-167452722496104647853003613004627968.000000 -167452781917226533551256808162590720.000000 -167452663074982762154750417846665216.000000
-167452682882023390720834816232652800.000000 -167452742303145276419088011390615552.000000 -167452781917226533551256808162590720.000000
-167452682882023390720834816232652800.000000 -167452682882023390720834816232652800.000000 -167452603653860876456497222688702464.000000
-167452702689064019286919214618640384.000000 -167452702689064019286919214618640384.000000 -167452682882023390720834816232652800.000000
-167452722496104647853003613004627968.000000 -167452702689064019286919214618640384.000000 -167452663074982762154750417846665216.000000
-167452702689064019286919214618640384.000000 -167452682882023390720834816232652800.000000 -167452702689064019286919214618640384.000000
-167452643267942133588666019460677632.000000 -167452643267942133588666019460677632.000000 -167452722496104647853003613004627968.000000
-167452702689064019286919214618640384.000000 -167452722496104647853003613004627968.000000 -167452821531307790683425604934565888.000000
0.000000 0.000000 0.000000
0.000000 0.000000 0.000000
0.000000 0.000000 -167470588446751614461130957165428736.000000
-167453514777729790496379548444131328.000000 -167453098829876590608607182338392064.000000 0.000000
0.000000 0.000000 -167466884530154072603348458985750528.000000
-167453197865079733439029174268329984.000000 0.000000 0.000000
0.000000 0.000000 0.000000
0.000000 0.000000 0.000000
0.000000 -167468469093404357890100329864757248.000000 -167452880952429676381678800092528640.000000
-167452702689064019286919214618640384.000000 -167452682882023390720834816232652800.000000 -167452821531307790683425604934565888.000000
-167452841338348419249510003320553472.000000 -167452801724267162117341206548578304.000000 -167452603653860876456497222688702464.000000
-167452603653860876456497222688702464.000000 -167452663074982762154750417846665216.000000 -167452643267942133588666019460677632.000000
-167452603653860876456497222688702464.000000 -167452643267942133588666019460677632.000000 -167452643267942133588666019460677632.000000
-167452643267942133588666019460677632.000000 -167452544232738990758244027530739712.000000 -167452682882023390720834816232652800.000000
-167452603653860876456497222688702464.000000 -167452583846820247890412824302714880.000000 -167452564039779619324328425916727296.000000
-167452623460901505022581621074690048.000000 -167452583846820247890412824302714880.000000 -167452583846820247890412824302714880.000000
-167452603653860876456497222688702464.000000 -167452564039779619324328425916727296.000000 -167452445197535847927822035600801792.000000
-167452524425698362192159629144752128.000000 -167452564039779619324328425916727296.000000 -167452564039779619324328425916727296.000000
-167452484811617105059990832372776960.000000 -167452544232738990758244027530739712.000000 -167452484811617105059990832372776960.000000
-167452544232738990758244027530739712.000000 -167452504618657733626075230758764544.000000 -167452504618657733626075230758764544.000000
-167452445197535847927822035600801792.000000 -167452484811617105059990832372776960.000000 -167452405583454590795653238828826624.000000
-167452484811617105059990832372776960.000000 -167452445197535847927822035600801792.000000 -167452524425698362192159629144752128.000000
0.000000 0.000000 -168828876064896162264834674649989120.000000
-170017338116691384460906630677004288.000000 -170017338116691384460906630677004288.000000 0.000000
0.000000 -167476649401183955682956863277629440.000000 -167453079022835962042522783952404480.000000
-167452762110185904985172409776603136.000000 -167452801724267162117341206548578304.000000 0.000000
-167462923122028359386468781788233728.000000 -167453098829876590608607182338392064.000000 0.000000
0.000000 0.000000 -167469003883501329174379086286422016.000000
-167453059215795333476438385566416896.000000 -167453356321404761967704361356230656.000000 -167451989635601390907880872723087360.000000
-167451890600398248077458880793149440.000000 -167451811372235733813121287249199104.000000 -167451950021520133775712075951112192.000000
-167451890600398248077458880793149440.000000 -167451969828560762341796474337099776.000000 -167451890600398248077458880793149440.000000
-167452088670804533738302864653025280.000000 -167451930214479505209627677565124608.000000 -167452049056723276606134067881050112.000000
-167451969828560762341796474337099776.000000 -167452207513048305134809254968950784.000000 -167452009442642019473965271109074944.000000
-167452207513048305134809254968950784.000000 -167452049056723276606134067881050112.000000 -167452247127129562266978051740925952.000000
-167452049056723276606134067881050112.000000 -167452266934170190833062450126913536.000000 -167452128284885790870471661425000448.000000
-167452326355292076531315645284876288.000000 -167452108477845162304387263039012864.000000 -167452346162332705097400043670863872.000000
-167452187706007676568724856582963200.000000 -167452365969373333663484442056851456.000000 -167452207513048305134809254968950784.000000
-167452365969373333663484442056851456.000000 -167452247127129562266978051740925952.000000 -167452385776413962229568840442839040.000000
-167452227320088933700893653354938368.000000 -167452484811617105059990832372776960.000000 -167452247127129562266978051740925952.000000
-167452465004576476493906433986789376.000000 -167452365969373333663484442056851456.000000 -167452583846820247890412824302714880.000000
-167452326355292076531315645284876288.000000 -167452702689064019286919214618640384.000000 -167452603653860876456497222688702464.000000
-167452841338348419249510003320553472.000000 -167452484811617105059990832372776960.000000 -167452326355292076531315645284876288.000000
-167452088670804533738302864653025280.000000 -167452326355292076531315645284876288.000000 -167452227320088933700893653354938368.000000
0.000000 0.000000 -167466349740057101319069702564085760.000000
-167452603653860876456497222688702464.000000 -167452247127129562266978051740925952.000000 -167452108477845162304387263039012864.000000
-167452207513048305134809254968950784.000000 -167451969828560762341796474337099776.000000 -167452167898967048002640458196975616.000000
-167452128284885790870471661425000448.000000 -167452643267942133588666019460677632.000000 -167452742303145276419088011390615552.000000
-167452900759470304947763198478516224.000000 -167452346162332705097400043670863872.000000 -167452148091926419436556059810988032.000000
-167452049056723276606134067881050112.000000 -167452128284885790870471661425000448.000000 -167451969828560762341796474337099776.000000
-167451989635601390907880872723087360.000000 -167451850986316990945290084021174272.000000 -167451969828560762341796474337099776.000000
-167451791565195105247036888863211520.000000 -167451870793357619511374482407161856.000000 -167451850986316990945290084021174272.000000
-167451910407438876643543279179137024.000000 -167451751951113848114868092091236352.000000 -167451910407438876643543279179137024.000000
-167451811372235733813121287249199104.000000 -167451850986316990945290084021174272.000000 -167451732144073219548783693705248768.000000
-167451831179276362379205685635186688.000000 -167451831179276362379205685635186688.000000 -167451811372235733813121287249199104.000000
-167451732144073219548783693705248768.000000 -167451811372235733813121287249199104.000000 -167451811372235733813121287249199104.000000
-167451850986316990945290084021174272.000000 -167451771758154476680952490477223936.000000 -167451831179276362379205685635186688.000000
-167451831179276362379205685635186688.000000 -167451811372235733813121287249199104.000000 -167451732144073219548783693705248768.000000
-167451811372235733813121287249199104.000000 -167451811372235733813121287249199104.000000 -167451890600398248077458880793149440.000000
-167451751951113848114868092091236352.000000 -167451850986316990945290084021174272.000000 -167451791565195105247036888863211520.000000
-167451850986316990945290084021174272.000000 -167451791565195105247036888863211520.000000 -167451811372235733813121287249199104.000000
-167451831179276362379205685635186688.000000 -167451890600398248077458880793149440.000000 -167451732144073219548783693705248768.000000
-167451831179276362379205685635186688.000000 -167451831179276362379205685635186688.000000 -167451890600398248077458880793149440.000000
-167451751951113848114868092091236352.000000 -167451850986316990945290084021174272.000000 -167451811372235733813121287249199104.000000
-167451910407438876643543279179137024.000000 -167451950021520133775712075951112192.000000 -167452187706007676568724856582963200.000000
-167452167898967048002640458196975616.000000 -167452266934170190833062450126913536.000000 -167452009442642019473965271109074944.000000
-167452068863763905172218466267037696.000000 -167452128284885790870471661425000448.000000 -167452504618657733626075230758764544.000000
-167452544232738990758244027530739712.000000 -167452861145389047815594401706541056.000000 -167452524425698362192159629144752128.000000
-167452544232738990758244027530739712.000000 -167452385776413962229568840442839040.000000 -167452484811617105059990832372776960.000000
-167452385776413962229568840442839040.000000 -167452544232738990758244027530739712.000000 -167452385776413962229568840442839040.000000
-167452504618657733626075230758764544.000000 -167452445197535847927822035600801792.000000 -167452524425698362192159629144752128.000000
-167452405583454590795653238828826624.000000 -167452504618657733626075230758764544.000000 -167452365969373333663484442056851456.000000
0.000000 0.000000 0.000000
0.000000 -167477580332093498288923587419045888.000000 -167452326355292076531315645284876288.000000
-167452207513048305134809254968950784.000000 -167452167898967048002640458196975616.000000 -167452247127129562266978051740925952.000000
-167452207513048305134809254968950784.000000 -167452504618657733626075230758764544.000000 -167452306548251447965231246898888704.000000
-167452484811617105059990832372776960.000000 -167452385776413962229568840442839040.000000 -167452504618657733626075230758764544.000000
-167452365969373333663484442056851456.000000 -167452504618657733626075230758764544.000000 -167452445197535847927822035600801792.000000
-167452524425698362192159629144752128.000000 -167452385776413962229568840442839040.000000 -167452445197535847927822035600801792.000000
-167452108477845162304387263039012864.000000 -167452207513048305134809254968950784.000000 -167452148091926419436556059810988032.000000
0.000000 0.000000 0.000000
0.000000 0.000000 0.000000
-168907708086597855280740250880573440.000000 -170017338116691384460906630677004288.000000 0.000000
0.000000 0.000000 0.000000
0.000000 -167483126303469496792555135495569408.000000 -167453197865079733439029174268329984.000000
-167452187706007676568724856582963200.000000 -167452227320088933700893653354938368.000000 -167452049056723276606134067881050112.000000
-167452167898967048002640458196975616.000000 -167452108477845162304387263039012864.000000 -167452286741210819399146848512901120.000000
-167452247127129562266978051740925952.000000 -167452544232738990758244027530739712.000000 -167452603653860876456497222688702464.000000
-167452920566510933513847596864503808.000000 0.000000 0.000000
0.000000 0.000000 0.000000
0.000000 0.000000 0.000000
0.000000 0.000000 0.000000
0.000000 0.000000 0.000000
0.000000 0.000000 0.000000
0.000000 0.000000 0.000000
0.000000 0.000000 0.000000
0.000000 0.000000 0.000000
0.000000 0.000000 0.000000
0.000000 0.000000 0.000000
-167463854052937901992435505929650176.000000 -167453138443957847740775979110367232.000000 -167452742303145276419088011390615552.000000
-167452841338348419249510003320553472.000000 -167452623460901505022581621074690048.000000 -167452801724267162117341206548578304.000000
-167452643267942133588666019460677632.000000 -167452880952429676381678800092528640.000000 -167452643267942133588666019460677632.000000
-167452821531307790683425604934565888.000000 -167452524425698362192159629144752128.000000 -167452821531307790683425604934565888.000000
-167452663074982762154750417846665216.000000 -167452861145389047815594401706541056.000000 -167452742303145276419088011390615552.000000
-167452861145389047815594401706541056.000000 -167452643267942133588666019460677632.000000 -167452841338348419249510003320553472.000000
-167452742303145276419088011390615552.000000 -167452861145389047815594401706541056.000000 -167452722496104647853003613004627968.000000
-167453079022835962042522783952404480.000000 -167452722496104647853003613004627968.000000 -167452801724267162117341206548578304.000000
-167452702689064019286919214618640384.000000 0.000000 0.000000
0.000000 0.000000 0.000000
0.000000 0.000000 -167469400024313900496067054006173696.000000
-167453395935486019099873158128205824.000000 -167452841338348419249510003320553472.000000 -167452861145389047815594401706541056.000000
-167452623460901505022581621074690048.000000 -167452841338348419249510003320553472.000000 0.000000
0.000000 0.000000 -167468607742688757852691118566670336.000000
0.000000 0.000000 0.000000
0.000000 0.000000 0.000000
0.000000 0.000000 0.000000
0.000000 -167470311148182814535949379761602560.000000 -167453296900282876269451166198267904.000000
-167452762110185904985172409776603136.000000 -167452880952429676381678800092528640.000000 -167452702689064019286919214618640384.000000
-167452880952429676381678800092528640.000000 -167452603653860876456497222688702464.000000 -167452821531307790683425604934565888.000000
-167452603653860876456497222688702464.000000 -167452663074982762154750417846665216.000000 -167452544232738990758244027530739712.000000
-167452801724267162117341206548578304.000000 -167452583846820247890412824302714880.000000 -167452643267942133588666019460677632.000000
-167452564039779619324328425916727296.000000 -167452781917226533551256808162590720.000000 -167452564039779619324328425916727296.000000
-167452663074982762154750417846665216.000000 -167452564039779619324328425916727296.000000 -167452781917226533551256808162590720.000000
-167452544232738990758244027530739712.000000 -167452623460901505022581621074690048.000000 -167452524425698362192159629144752128.000000
-167452702689064019286919214618640384.000000 -167452465004576476493906433986789376.000000 -167452603653860876456497222688702464.000000
-167452524425698362192159629144752128.000000 -167452663074982762154750417846665216.000000 -167452504618657733626075230758764544.000000
-167452603653860876456497222688702464.000000 -167452445197535847927822035600801792.000000 -167452564039779619324328425916727296.000000
-167452465004576476493906433986789376.000000 -167452583846820247890412824302714880.000000 -167452484811617105059990832372776960.000000
